ply
format ascii 1.0
comment File exported by Rhinoceros Version 7.0
element vertex 665
property float x
property float y
property float z
property float nx
property float ny
property float nz
property uchar red
property uchar green
property uchar blue
end_header
-0.700920498476662 0.204928945504898 -0.290408547276767 0 0 0 0 133 255
-0.689752108250409 0.163850375616255 -0.277057631618769 0 0 0 0 133 255
-0.734271178682168 0.307195591847192 -0.31320135887078 0 0 0 0 133 255
-0.706652554239204 0.291258917048123 -0.342248459761592 0 0 0 0 133 255
-0.697191796192672 0.260303318458419 -0.335017476336861 0 0 0 0 133 255
-0.693815537876592 0.230657800512518 -0.324363658918293 0 0 0 0 133 255
-0.706848114584839 0.396093370099658 -0.398083786632902 0 0 0 0 133 255
-0.700136913778832 0.363192257893031 -0.383709434520139 0 0 0 0 133 255
-0.665054360231542 0.292172423498241 -0.362743421966309 0 0 0 0 133 255
-0.6903384408787 0.326574968199898 -0.368780804265139 0 0 0 0 133 255
-0.644457221434885 0.422162664073654 -0.428917873357185 0 0 0 0 133 255
-0.664377543622757 0.35564972744656 -0.392618258515047 0 0 0 0 133 255
-0.665047850228024 0.382575501499713 -0.405835920378183 0 0 0 0 133 255
-0.639118545141831 0.33476171674137 -0.391307807880354 0 0 0 0 133 255
-0.613462355397877 0.295420948518655 -0.380957779343383 0 0 0 0 133 255
-0.597160904083638 0.459156020420369 -0.433742956347835 0 0 0 0 133 255
-0.613361862746417 0.40686498760187 -0.423323262167198 0 0 0 0 133 255
-0.622437249699453 0.439124044814679 -0.434807263210483 0 0 0 0 133 255
-0.572385861625869 0.364383429227667 -0.414376965075387 0 0 0 0 133 255
-0.559989498634077 0.337718455962221 -0.410380982440015 0 0 0 0 133 255
-0.541874761847401 0.36364054555102 -0.416730043991624 0 0 0 0 133 255
-0.608601537394582 0.356105964012498 -0.409863478275644 0 0 0 0 133 255
-0.546603385644689 0.475047068904609 -0.433562331949517 0 0 0 0 133 255
-0.54847919084118 0.507376311360928 -0.438357568711208 0 0 0 0 133 255
-0.55463180193627 0.414585762714844 -0.424957963600691 0 0 0 0 133 255
-0.501891188954296 0.436819331009395 -0.427413295390057 0 0 0 0 133 255
-0.501322241148604 0.407797047740406 -0.423063448523975 0 0 0 0 133 255
-0.464754250539405 0.339238831070374 -0.41091974470776 0 0 0 0 133 255
-0.435800474289217 0.363108424636807 -0.414626349809925 0 0 0 0 133 255
-0.452839568297597 0.393690387634753 -0.420047382115939 0 0 0 0 133 255
-0.450759260330899 0.459543182615649 -0.431702534799594 0 0 0 0 133 255
-0.462290394167655 0.42588170285568 -0.425488568603172 0 0 0 0 133 255
-0.387035353672131 0.440671527627175 -0.430667552337385 0 0 0 0 133 255
-0.432200248437881 0.413649658897491 -0.424320283877565 0 0 0 0 133 255
-0.396916263853838 0.402680031616833 -0.423423894444336 0 0 0 0 133 255
-0.345306755239842 0.367965261164416 -0.416164979637854 0 0 0 0 133 255
-0.348040573274127 0.40164511835241 -0.424511327640715 0 0 0 0 133 255
-0.365518802735838 0.335135097029028 -0.408310040540027 0 0 0 0 133 255
-0.308366681097377 0.361494064929193 -0.414114287267469 0 0 0 0 133 255
-0.349964779428347 0.496558097084308 -0.438935822576597 0 0 0 0 133 255
-0.356143580816548 0.46463494248986 -0.434257159534853 0 0 0 0 133 255
-0.301554483386538 0.412467433266014 -0.423736409407791 0 0 0 0 133 255
-0.248724085050717 0.345596162535527 -0.401726136242799 0 0 0 0 133 255
-0.22701274037258 0.386491274298777 -0.409684382517085 0 0 0 0 133 255
-0.246565271987738 0.495643422831733 -0.423991945022207 0 0 0 0 133 255
-0.257196643554929 0.438626307115565 -0.425853689069594 0 0 0 0 133 255
-0.260321167510299 0.468149600933845 -0.426750637809531 0 0 0 0 133 255
-0.169293414451129 0.445834882286997 -0.400594854116459 0 0 0 0 133 255
-0.207701349492348 0.448106096922471 -0.414326371243384 0 0 0 0 133 255
-0.230056209089984 0.42491401575907 -0.419400169661837 0 0 0 0 133 255
-0.296479221821181 0.474461364993246 -0.433819148136715 0 0 0 0 133 255
-0.286813381972752 0.518204716176668 -0.431396667385016 0 0 0 0 133 255
-0.388884819565803 0.553459153054914 -0.446469566881867 0 0 0 0 133 255
-0.338817456808268 0.553881252426143 -0.438746890322175 0 0 0 0 133 255
-0.334822487974301 0.520364561543373 -0.439217620200655 0 0 0 0 133 255
-0.297105392599183 0.548250699585526 -0.432506789498657 0 0 0 0 133 255
-0.303000581483233 0.597046020644963 -0.432490511381343 0 0 0 0 133 255
-0.29298562058146 0.625360259152001 -0.430005154787105 0 0 0 0 133 255
-0.202294846841199 0.589321025566169 -0.414103951151623 0 0 0 0 133 255
-0.242890500636125 0.576703121384707 -0.422111263448539 0 0 0 0 133 255
-0.162996469849332 0.597811335945496 -0.406365202648556 0 0 0 0 133 255
-0.329316004817319 0.618418434079065 -0.436419321680545 0 0 0 0 133 255
-0.393643613072917 0.640714443329988 -0.446261621635435 0 0 0 0 133 255
-0.352690550886307 0.64230130710665 -0.439421509617547 0 0 0 0 133 255
-0.289832156932511 0.712942140489474 -0.429926776498347 0 0 0 0 133 255
-0.306981868004085 0.661761044028632 -0.431409536780982 0 0 0 0 133 255
-0.33152095291915 0.675199248714058 -0.435275852592697 0 0 0 0 133 255
-0.229805085121895 0.676897850048177 -0.419673459572952 0 0 0 0 133 255
-0.261201859301942 0.655958222653613 -0.423929540152085 0 0 0 0 133 255
-0.196528558173563 0.690341898397926 -0.414184044114274 0 0 0 0 133 255
-0.134795282214542 0.697384240302968 -0.401998524694568 0 0 0 0 133 255
-0.164051583973323 0.686424538594108 -0.406920947230674 0 0 0 0 133 255
-0.353889289940206 0.721984203387034 -0.439226024466528 0 0 0 0 133 255
-0.35804464518405 0.692712846396362 -0.439418454344638 0 0 0 0 133 255
-0.414044036603792 0.721287502592466 -0.447722110252781 0 0 0 0 133 255
-0.321389402957528 0.709767741561146 -0.434465851677555 0 0 0 0 133 255
-0.342777704942534 0.761558352108595 -0.439906035170544 0 0 0 0 133 255
-0.306658097508486 0.736941816850125 -0.432946550709088 0 0 0 0 133 255
-0.184578201255688 0.767032185929967 -0.39998085664745 0 0 0 0 133 255
-0.221154186791901 0.753040885722169 -0.410002104382334 0 0 0 0 133 255
-0.239977699506031 0.77099049190803 -0.42380361942949 0 0 0 0 133 255
-0.260082978779201 0.743326170818876 -0.422447196217156 0 0 0 0 133 255
-0.294222395368201 0.817990033575638 -0.435271871227377 0 0 0 0 133 255
-0.260652364909582 0.822043406648637 -0.426235045467433 0 0 0 0 133 255
-0.217684553700595 0.793617731040175 -0.413375472804138 0 0 0 0 133 255
-0.154312382858797 0.815933502409528 -0.374137199452325 0 0 0 0 133 255
-0.191798125131705 0.803665660889405 -0.396999880969719 0 0 0 0 133 255
-0.215112654781576 0.833085086750353 -0.39791669667619 0 0 0 0 133 255
-0.241619779720673 0.851575265323193 -0.405292135574438 0 0 0 0 133 255
-0.164557183646834 0.845580808225695 -0.368785421178951 0 0 0 0 133 255
-0.185568328204056 0.832471608407058 -0.383671576131669 0 0 0 0 133 255
-0.226330699809238 0.878915439309305 -0.385922914195259 0 0 0 0 133 255
-0.246410132922738 0.905169784074586 -0.374359954618024 0 0 0 0 133 255
-0.190021306482519 0.884149176994948 -0.361093259046409 0 0 0 0 133 255
-0.149439201592254 0.904122052770812 -0.293192035308239 0 0 0 0 133 255
-0.191554685017536 0.903067006483143 -0.327341677169407 0 0 0 0 133 255
-0.260369084774281 0.938491492542229 -0.309222524914184 0 0 0 0 133 255
-0.250297290244356 0.919404628498784 -0.338674334092436 0 0 0 0 133 255
-0.200527167459193 0.922550017832893 -0.298636995815347 0 0 0 0 133 255
-0.177618126239601 0.931496853154318 -0.264760360301178 0 0 0 0 133 255
-0.248122699172126 0.950715679885562 -0.278796491005333 0 0 0 0 133 255
-0.216159362008725 0.941942253557607 -0.274364079462242 0 0 0 0 133 255
-0.213374073798175 0.961958250134813 -0.238146110547442 0 0 0 0 133 255
-0.117126080829549 0.924336203959145 -0.208325048865986 0 0 0 0 133 255
-0.186508160798105 0.941194687880062 -0.222155785784014 0 0 0 0 133 255
-0.0784658898571732 0.88323018874231 -0.163974175220479 0 0 0 0 133 255
-0.171026041935076 0.893787675552576 -0.185354756667204 0 0 0 0 133 255
-0.166212491968618 0.916242507259459 -0.201050244352451 0 0 0 0 133 255
-0.142703534016781 0.895090068176361 -0.181387391814184 0 0 0 0 133 255
-0.116505450716734 0.885111266496852 -0.168329408798565 0 0 0 0 133 255
-0.0382510246435812 0.83891542769409 -0.116507417873797 0 0 0 0 133 255
-0.115047302747798 0.850563637529195 -0.130506175568003 0 0 0 0 133 255
-0.115729856252801 0.826049558240414 -0.0926274972405618 0 0 0 0 133 255
-0.0831667141464929 0.819669887400279 -0.0876148331272635 0 0 0 0 133 255
-0.0272241569388932 0.788928297600172 -0.0562620186860073 0 0 0 0 133 255
-0.0522449183829007 0.780779090958345 -0.0408839705970652 0 0 0 0 133 255
-0.152370065310161 0.808902571128062 -0.0626183744327654 0 0 0 0 133 255
-0.0968225268071279 0.802249117371344 -0.0604129026271185 0 0 0 0 133 255
-0.113234407592263 0.77663127149649 -0.0238088415116876 0 0 0 0 133 255
-0.0823740460423759 0.785980468974092 -0.0424526316733652 0 0 0 0 133 255
-0.0809258150568068 0.73348567823441 0.0168307554796423 0 0 0 0 133 255
-0.0220479571876704 0.731067835985519 0.00568131178357155 0 0 0 0 133 255
-0.0638593480302468 0.716881241302075 0.0295864207047867 0 0 0 0 133 255
-0.116271167575573 0.741260472015783 0.0113239833387916 0 0 0 0 133 255
-0.137614884896489 0.768992147162544 -0.0125104382263594 0 0 0 0 133 255
-0.11422809614821 0.690696971672065 0.0550679006313809 0 0 0 0 133 255
-0.125126550106771 0.715696803839853 0.0341521681730806 0 0 0 0 133 255
-0.0829878213810445 0.667884614563403 0.0717499325166818 0 0 0 0 133 255
-0.0748643710888202 0.635548077210817 0.098626076223749 0 0 0 0 133 255
-0.0556058099959548 0.664585781773221 0.0720086640517344 0 0 0 0 133 255
-0.160131562399375 0.66945565110472 0.0641688746503397 0 0 0 0 133 255
-0.149069230415805 0.700475123581297 0.0465595973592681 0 0 0 0 133 255
-0.119885393580984 0.644120892369658 0.0872753434429755 0 0 0 0 133 255
-0.154646084300045 0.624803860630929 0.0939574168972239 0 0 0 0 133 255
-0.10226446736788 0.587369107397583 0.124618018682041 0 0 0 0 133 255
-0.0856372520937032 0.560562602763148 0.143624284441837 0 0 0 0 133 255
-0.0578734029068985 0.587976522770634 0.130117137290102 0 0 0 0 133 255
-0.161892146140722 0.596003205093225 0.110569949213449 0 0 0 0 133 255
-0.190020804888701 0.583931112040782 0.113385528988809 0 0 0 0 133 255
-0.154547854912684 0.521129055109573 0.157631591575609 0 0 0 0 133 255
-0.152028904305005 0.572702486722999 0.126544172027453 0 0 0 0 133 255
-0.180096391811722 0.54004565745195 0.142100461597217 0 0 0 0 133 255
-0.118238623773754 0.471303810845709 0.192953394173558 0 0 0 0 133 255
-0.103261421851391 0.506153009816995 0.174463730403951 0 0 0 0 133 255
-0.240296569660412 0.507451239923792 0.152055955895295 0 0 0 0 133 255
-0.203232467112405 0.506683484933972 0.158554610080058 0 0 0 0 133 255
-0.170261272429744 0.489695715954682 0.173534824997962 0 0 0 0 133 255
-0.197367137093454 0.471262983704333 0.179514651280526 0 0 0 0 133 255
-0.174979635551557 0.458717424931555 0.189801281615517 0 0 0 0 133 255
-0.174494942456497 0.434385400202216 0.203215814808908 0 0 0 0 133 255
-0.160666385658201 0.412220683002302 0.21779526821781 0 0 0 0 133 255
-0.138633283236911 0.382304584248966 0.237396414241308 0 0 0 0 133 255
-0.118213068582776 0.42073887946214 0.220977319117377 0 0 0 0 133 255
-0.247857714397015 0.41224856259948 0.193881848954799 0 0 0 0 133 255
-0.213615436888146 0.450505788313228 0.187780680898935 0 0 0 0 133 255
-0.196528943557819 0.417045150941667 0.206676895337695 0 0 0 0 133 255
-0.190345511284289 0.376326324530286 0.2252107738187 0 0 0 0 133 255
-0.200175407931398 0.34153543650752 0.236695456224243 0 0 0 0 133 255
-0.226150781573265 0.365408017244087 0.219358055768248 0 0 0 0 133 255
-0.142599981199517 0.330971427497287 0.25800244959104 0 0 0 0 133 255
-0.171156534647696 0.327096148824745 0.251174284961508 0 0 0 0 133 255
-0.164524972848005 0.295549396271809 0.266106302810213 0 0 0 0 133 255
-0.26773244763636 0.312724566380223 0.211348461919829 0 0 0 0 133 255
-0.241645686703363 0.320609570530309 0.222592118987453 0 0 0 0 133 255
-0.201152641790966 0.307163401624615 0.245525348543547 0 0 0 0 133 255
-0.212731277367502 0.25393273752926 0.251199032797326 0 0 0 0 133 255
-0.223152397102635 0.286315099022788 0.239122931249811 0 0 0 0 133 255
-0.145342672477947 0.233392194930178 0.288867872644822 0 0 0 0 133 255
-0.189508811235635 0.219903727656411 0.26991449277061 0 0 0 0 133 255
-0.167416626676688 0.207491891668519 0.283441763102324 0 0 0 0 133 255
-0.238705421114932 0.253673533082578 0.237942811621689 0 0 0 0 133 255
-0.247966731247084 0.222196373150334 0.237897367530831 0 0 0 0 133 255
-0.221053744016795 0.196628802983223 0.257475893263383 0 0 0 0 133 255
-0.216865590964107 0.146386622071065 0.268789764996373 0 0 0 0 133 255
-0.142095100143564 0.14412660495697 0.308616890665933 0 0 0 0 133 255
-0.184069405541647 0.117147710772319 0.291436131881166 0 0 0 0 133 255
-0.251692278475856 0.130508728703142 0.250988934918885 0 0 0 0 133 255
-0.259037739863682 0.165919483126513 0.241884899056335 0 0 0 0 133 255
-0.278065728992234 0.13386390763381 0.235101091751602 0 0 0 0 133 255
-0.236663609000941 0.104008924336079 0.264201957369486 0 0 0 0 133 255
-0.193615450226704 0.0219567310646464 0.302630305811062 0 0 0 0 133 255
-0.215276710120691 0.0375032028752255 0.287678683980809 0 0 0 0 133 255
-0.154954087203941 0.0535720756914418 0.317468366563099 0 0 0 0 133 255
-0.290635313060181 0.0284897683684564 0.23631669544236 0 0 0 0 133 255
-0.247222186332554 0.03936688903561 0.265730590606366 0 0 0 0 133 255
-0.253002124609431 0.0688516886047279 0.260151943241516 0 0 0 0 133 255
-0.247831206773838 0.000596412973294463 0.267690653795931 0 0 0 0 133 255
-0.22598112188184 -0.0199294470644647 0.284442436564377 0 0 0 0 133 255
-0.280755440540146 0.0893943823280409 0.239822713959519 0 0 0 0 133 255
-0.333289128962853 0.0774129622812513 0.20429402310293 0 0 0 0 133 255
-0.300828535752884 0.11411518226803 0.224479872528308 0 0 0 0 133 255
-0.308624979469492 0.0773485780470551 0.221317663221295 0 0 0 0 133 255
-0.295510241173554 0.160258241765776 0.220970334978954 0 0 0 0 133 255
-0.284280640850674 0.195210221183762 0.222587503651752 0 0 0 0 133 255
-0.366635539083819 0.109083618902847 0.179466816362955 0 0 0 0 133 255
-0.338027273356201 0.147994645889967 0.196787261843955 0 0 0 0 133 255
-0.313957369367963 0.229923613381443 0.199716553967703 0 0 0 0 133 255
-0.32880587357442 0.177996131471146 0.198168352539194 0 0 0 0 133 255
-0.335786885328621 0.204448164266557 0.190162882428481 0 0 0 0 133 255
-0.358161093155781 0.161054913934621 0.182154640325073 0 0 0 0 133 255
-0.384876698154584 0.149028736479036 0.164538282708004 0 0 0 0 133 255
-0.421154978214136 0.210748460995985 0.135775224826522 0 0 0 0 133 255
-0.409433118693255 0.168555600675851 0.146470907938644 0 0 0 0 133 255
-0.475609776535554 0.129780690455615 0.0871172976392537 0 0 0 0 133 255
-0.447260753160284 0.1418805949224 0.117949636645465 0 0 0 0 133 255
-0.440832674218421 0.10852607202836 0.115379900740265 0 0 0 0 133 255
-0.421440193399255 0.0687025073931974 0.123689221929534 0 0 0 0 133 255
-0.496490444170292 0.17774175669415 0.0784722378955616 0 0 0 0 133 255
-0.49302042327172 0.147005008487394 0.074300591320748 0 0 0 0 133 255
-0.510345724217857 0.134465431284967 0.0546885200060484 0 0 0 0 133 255
-0.546190018935663 0.125997212588369 0.0181015246564958 0 0 0 0 133 255
-0.531344266853239 0.150852537157874 0.0389361937672836 0 0 0 0 133 255
-0.506766798048456 0.103966610633984 0.0501552190590629 0 0 0 0 133 255
-0.484918829674317 0.0486148634073159 0.0565122798825995 0 0 0 0 133 255
-0.502927726197163 0.0762511525239417 0.0465711712582951 0 0 0 0 133 255
-0.57229570946921 0.201195163263745 0.0115650188429827 0 0 0 0 133 255
-0.560145877183872 0.168878937803819 0.0154432021547323 0 0 0 0 133 255
-0.578269161647528 0.133200259461057 -0.0119801320785868 0 0 0 0 133 255
-0.610433058832486 0.136855550146104 -0.0448641421566418 0 0 0 0 133 255
-0.557224749003533 0.0832804802858929 -0.00420661938845015 0 0 0 0 133 255
-0.546288620390668 0.048919528337984 -0.00287193119708811 0 0 0 0 133 255
-0.580176840123295 0.0819211203167084 -0.0277905194438309 0 0 0 0 133 255
-0.625694650721646 0.179148279542014 -0.0519945847407815 0 0 0 0 133 255
-0.635834969510714 0.143111469503752 -0.0723320304095716 0 0 0 0 133 255
-0.663434224495746 0.161558471551233 -0.0992683726012992 0 0 0 0 133 255
-0.618719208184261 0.115459984693519 -0.0601290535827384 0 0 0 0 133 255
-0.602486888906914 0.0650977869329066 -0.0587221608050983 0 0 0 0 133 255
-0.650116945497868 0.186084323607775 -0.0802030298941521 0 0 0 0 133 255
-0.659147649274411 0.225986581962001 -0.0862446414596921 0 0 0 0 133 255
-0.669531505803576 0.19125841485313 -0.104201883568042 0 0 0 0 133 255
-0.689227804264818 0.197000738613046 -0.123910724540793 0 0 0 0 133 255
-0.72746845216125 0.227899937624993 -0.16486204126784 0 0 0 0 133 255
-0.708091033562735 0.21285859811659 -0.143226522717065 0 0 0 0 133 255
-0.703061671169415 0.176793823828762 -0.142449834126693 0 0 0 0 133 255
-0.734134705952081 0.314030427180514 -0.182841543847595 0 0 0 0 133 255
-0.731628198096025 0.261240683499853 -0.168038825199019 0 0 0 0 133 255
-0.719620605763465 0.288758952803506 -0.165198401841442 0 0 0 0 133 255
-0.755001808160642 0.284327367669877 -0.193700766580158 0 0 0 0 133 255
-0.765621924829613 0.312059090157991 -0.202410130281285 0 0 0 0 133 255
-0.785503073463819 0.362208792839327 -0.262811881121295 0 0 0 0 133 255
-0.779222110289368 0.33539589957294 -0.250951196957917 0 0 0 0 133 255
-0.769394383847103 0.285963546087004 -0.226598320971254 0 0 0 0 133 255
-0.776566215078947 0.392935262601349 -0.299831451432346 0 0 0 0 133 255
-0.782923960551185 0.420267420224388 -0.305399900816597 0 0 0 0 133 255
-0.76711887609865 0.409274492682044 -0.328568565780059 0 0 0 0 133 255
-0.76687386210574 0.357406406690055 -0.293847884877465 0 0 0 0 133 255
-0.7562129473837 0.327517392937108 -0.289884107274894 0 0 0 0 133 255
-0.744119052820063 0.296157335295886 -0.287405560409713 0 0 0 0 133 255
-0.772077057370687 0.461393449158139 -0.364823937283157 0 0 0 0 133 255
-0.764407575377279 0.430780607490246 -0.359533045122271 0 0 0 0 133 255
-0.741822384737723 0.397834782163128 -0.380306970425398 0 0 0 0 133 255
-0.750815768272501 0.393090024271629 -0.347026779103706 0 0 0 0 133 255
-0.726061383497034 0.34292037619826 -0.35631274139737 0 0 0 0 133 255
-0.77649749810982 0.488215032562603 -0.393432406773936 0 0 0 0 133 255
-0.798138056301891 0.545937337720343 -0.403978865551031 0 0 0 0 133 255
-0.767906138820856 0.488649834139225 -0.425735493315529 0 0 0 0 133 255
-0.779122075725672 0.52155557938166 -0.440001649921138 0 0 0 0 133 255
-0.733598730131371 0.449444461798716 -0.417364955139871 0 0 0 0 133 255
-0.759988142697978 0.457570085580263 -0.411333367560932 0 0 0 0 133 255
-0.727161053719974 0.420785367114038 -0.403759759769298 0 0 0 0 133 255
-0.750062410095827 0.520156635416343 -0.448368711285794 0 0 0 0 133 255
-0.72881720731903 0.540651466734878 -0.458187470505029 0 0 0 0 133 255
-0.717139884155085 0.465743658614186 -0.432208835596016 0 0 0 0 133 255
-0.693858648765105 0.446574644969513 -0.430321372749054 0 0 0 0 133 255
-0.682301653175816 0.417239356256351 -0.419264169310755 0 0 0 0 133 255
-0.700215744528486 0.536098488584334 -0.454170185232742 0 0 0 0 133 255
-0.705261360145008 0.493015424080483 -0.447357252388161 0 0 0 0 133 255
-0.655522911865948 0.482636763437421 -0.444079770128136 0 0 0 0 133 255
-0.682708989948424 0.561701930893177 -0.456647396316507 0 0 0 0 133 255
-0.670632394453204 0.527349844763558 -0.451446270152102 0 0 0 0 133 255
-0.61793218321149 0.496423308536389 -0.441352404144159 0 0 0 0 133 255
-0.623258813594429 0.574104016625414 -0.450299927929895 0 0 0 0 133 255
-0.65371983748197 0.608909835780375 -0.457460741313762 0 0 0 0 133 255
-0.58014918049278 0.573683176899964 -0.448181305040073 0 0 0 0 133 255
-0.590547890909268 0.542475451782591 -0.444951030551641 0 0 0 0 133 255
-0.60391211065281 0.653238100930976 -0.460037629269014 0 0 0 0 133 255
-0.588654799270325 0.616763908976842 -0.454412646117399 0 0 0 0 133 255
-0.524906985661794 0.578786528918953 -0.449668307826259 0 0 0 0 133 255
-0.464669224849916 0.522538975249087 -0.442098417992676 0 0 0 0 133 255
-0.492734888481192 0.490505331146029 -0.435806006337503 0 0 0 0 133 255
-0.491053362116852 0.536269599282142 -0.44345026622398 0 0 0 0 133 255
-0.508235232239136 0.637969874869473 -0.457985425772879 0 0 0 0 133 255
-0.5109910452468 0.604246300403015 -0.453421834831934 0 0 0 0 133 255
-0.482148774336935 0.569675819447325 -0.448836540385722 0 0 0 0 133 255
-0.448304439286036 0.572703727905333 -0.449441395843664 0 0 0 0 133 255
-0.468467373563491 0.629579110836404 -0.456022388622066 0 0 0 0 133 255
-0.471447339900129 0.666184214016808 -0.456787660215665 0 0 0 0 133 255
-0.370809699844968 0.609033626569519 -0.443206894732719 0 0 0 0 133 255
-0.417065261921991 0.610690257807677 -0.449398660135423 0 0 0 0 133 255
-0.498733166169656 0.689837780248339 -0.459984226068291 0 0 0 0 133 255
-0.532396543982059 0.700667021387699 -0.463703417577449 0 0 0 0 133 255
-0.46973537337443 0.697568073719769 -0.456912511920836 0 0 0 0 133 255
-0.499401046786074 0.7213169355422 -0.460952438408342 0 0 0 0 133 255
-0.392624677959258 0.704023215750326 -0.444545283327937 0 0 0 0 133 255
-0.417587726400236 0.689860865056673 -0.448742823391595 0 0 0 0 133 255
-0.512107903559733 0.771719543765464 -0.462225495050084 0 0 0 0 133 255
-0.585388152401928 0.789341994324855 -0.472502785516862 0 0 0 0 133 255
-0.55443792964804 0.772081488105961 -0.468281908934215 0 0 0 0 133 255
-0.502171833266702 0.808565664699936 -0.463517951999055 0 0 0 0 133 255
-0.455572542407009 0.77157518648868 -0.454790444919082 0 0 0 0 133 255
-0.428221504152652 0.781979761575361 -0.45186298882178 0 0 0 0 133 255
-0.401317756300607 0.76435060606946 -0.447095709841919 0 0 0 0 133 255
-0.481486098982192 0.827756577913526 -0.462420709543483 0 0 0 0 133 255
-0.446377572399591 0.810940321074436 -0.456809189597115 0 0 0 0 133 255
-0.462107902193607 0.857989440898089 -0.46483097208871 0 0 0 0 133 255
-0.334566080105885 0.80850632780174 -0.445126426312259 0 0 0 0 133 255
-0.411457025462311 0.809740896974385 -0.453146278314668 0 0 0 0 133 255
-0.408131775087855 0.862829212757799 -0.460265787975669 0 0 0 0 133 255
-0.319532200482644 0.838890934355464 -0.43786923714818 0 0 0 0 133 255
-0.37961809906898 0.834511136066176 -0.45254400462887 0 0 0 0 133 255
-0.408924407452317 0.895052091806839 -0.46341480183554 0 0 0 0 133 255
-0.362350937943416 0.875894241004884 -0.454859743245434 0 0 0 0 133 255
-0.328587623586424 0.871161690626661 -0.441833793775866 0 0 0 0 133 255
-0.281575802671838 0.874757864383215 -0.417117210911551 0 0 0 0 133 255
-0.328909885432417 0.904103741437546 -0.433620487236319 0 0 0 0 133 255
-0.360311676948424 0.916694751407062 -0.446089835557688 0 0 0 0 133 255
-0.26763927654557 0.900661818949736 -0.400062727943142 0 0 0 0 133 255
-0.305365600277127 0.922793745317561 -0.412749482796097 0 0 0 0 133 255
-0.353331299524297 0.942241291290883 -0.417909473952908 0 0 0 0 133 255
-0.283037967278001 0.923204819236743 -0.370673077454084 0 0 0 0 133 255
-0.3728278345988 0.952880911505237 -0.372933467712148 0 0 0 0 133 255
-0.344241970588817 0.942917827905413 -0.362306754799973 0 0 0 0 133 255
-0.302577043418602 0.94367320414838 -0.328768760394994 0 0 0 0 133 255
-0.381603007047361 0.971162956487059 -0.323479210597101 0 0 0 0 133 255
-0.341940621943878 0.955473314079458 -0.328408396092832 0 0 0 0 133 255
-0.300484055430266 0.973733556677717 -0.269154595048383 0 0 0 0 133 255
-0.325431524134035 0.96187660188375 -0.306111669383962 0 0 0 0 133 255
-0.392253966481849 0.964562266713755 -0.290925197362705 0 0 0 0 133 255
-0.35134822211939 0.974107877072542 -0.28506665371473 0 0 0 0 133 255
-0.229144339374297 0.935595177760127 -0.229588372372923 0 0 0 0 133 255
-0.249168235207465 0.951315624980801 -0.242346398424044 0 0 0 0 133 255
-0.328272961088418 0.936707330229517 -0.251107213686981 0 0 0 0 133 255
-0.286586997400377 0.926199572194327 -0.235311766759648 0 0 0 0 133 255
-0.247911293771003 0.906824764772353 -0.210941867919981 0 0 0 0 133 255
-0.217616637836011 0.905703740623194 -0.203658828083985 0 0 0 0 133 255
-0.279013767933962 0.906300828996618 -0.2100668256495 0 0 0 0 133 255
-0.312997118900811 0.906956764445942 -0.210777156961494 0 0 0 0 133 255
-0.236748908377228 0.875988995603824 -0.164312936510117 0 0 0 0 133 255
-0.169353811576752 0.852326219351374 -0.129785355749017 0 0 0 0 133 255
-0.15091988121586 0.863258473554223 -0.147286228452186 0 0 0 0 133 255
-0.203256042771444 0.865523658822487 -0.149111638875296 0 0 0 0 133 255
-0.252586806833807 0.850064676450972 -0.124686399616207 0 0 0 0 133 255
-0.222931925073579 0.852437881330349 -0.127713146996459 0 0 0 0 133 255
-0.176907578918627 0.826790699067052 -0.0893853257135286 0 0 0 0 133 255
-0.267989268238075 0.824168355792536 -0.100475462511248 0 0 0 0 133 255
-0.229801530309053 0.82482873255375 -0.0895635268364791 0 0 0 0 133 255
-0.235148725894462 0.802958862017662 -0.0668705364378994 0 0 0 0 133 255
-0.228425049051463 0.783676386623014 -0.0437850324297031 0 0 0 0 133 255
-0.186689094733308 0.746675466754893 0.00486584751072767 0 0 0 0 133 255
-0.194832517242309 0.769573251762292 -0.022258139020599 0 0 0 0 133 255
-0.168426763204071 0.763428790286478 -0.0108504420862151 0 0 0 0 133 255
-0.265983733983131 0.761635020386428 -0.037422392708907 0 0 0 0 133 255
-0.299051314085488 0.754917181719253 -0.0455874566446244 0 0 0 0 133 255
-0.24523271262198 0.711369892374473 0.0154481601053039 0 0 0 0 133 255
-0.231735864063398 0.749422640310889 -0.012132884421385 0 0 0 0 133 255
-0.231374792831358 0.684066061025297 0.0399684191814083 0 0 0 0 133 255
-0.199038459636544 0.680959577152214 0.0492665644450726 0 0 0 0 133 255
-0.294678390186399 0.711064017640028 -0.00310858282890613 0 0 0 0 133 255
-0.278436502656817 0.694998449187898 0.0169305723973043 0 0 0 0 133 255
-0.260533922108929 0.678565127131422 0.0368828173115076 0 0 0 0 133 255
-0.262678214232743 0.636598693368647 0.0653528482303616 0 0 0 0 133 255
-0.246010851170219 0.617337507290542 0.0816550519990914 0 0 0 0 133 255
-0.228662923379987 0.585804766319247 0.105793427625603 0 0 0 0 133 255
-0.214688605881818 0.616515452179857 0.0883369806371303 0 0 0 0 133 255
-0.298166671186848 0.648265818582824 0.0484177272803035 0 0 0 0 133 255
-0.348452921029992 0.618720860565821 0.0573782683958292 0 0 0 0 133 255
-0.322971973161721 0.628806554393438 0.0562827038573591 0 0 0 0 133 255
-0.276093687736378 0.60235281657348 0.0858582778270304 0 0 0 0 133 255
-0.29556169430294 0.574423764758746 0.100906174111799 0 0 0 0 133 255
-0.241740536003558 0.533619601734393 0.136311320277533 0 0 0 0 133 255
-0.212896526931263 0.536684049896576 0.13895926887399 0 0 0 0 133 255
-0.276782062442523 0.533988354024232 0.13066764970717 0 0 0 0 133 255
-0.310395960745527 0.553404828166141 0.111836691842547 0 0 0 0 133 255
-0.312366598553243 0.47812444014401 0.147391493968945 0 0 0 0 133 255
-0.326762825498856 0.504394156709529 0.131982323988624 0 0 0 0 133 255
-0.303761558225989 0.520560487037697 0.130786217799006 0 0 0 0 133 255
-0.298078720844926 0.434300494259644 0.170494851494973 0 0 0 0 133 255
-0.250677461580594 0.447404492611104 0.178514905343326 0 0 0 0 133 255
-0.320576202169045 0.443600532293459 0.15732346567514 0 0 0 0 133 255
-0.361698124125548 0.438109580920551 0.136143496819239 0 0 0 0 133 255
-0.349747728341163 0.478315641031544 0.13537199973485 0 0 0 0 133 255
-0.325942365265364 0.362126760211813 0.171615237572619 0 0 0 0 133 255
-0.335708571735016 0.394756028945624 0.159510427337924 0 0 0 0 133 255
-0.262925209406937 0.348289317871075 0.206169347245149 0 0 0 0 133 255
-0.304405066750195 0.346067568952376 0.185896295131288 0 0 0 0 133 255
-0.364508984092478 0.352416112768073 0.150372372694828 0 0 0 0 133 255
-0.393789067884875 0.335101035744306 0.135136721488632 0 0 0 0 133 255
-0.331917859709494 0.327824121447406 0.17390875524946 0 0 0 0 133 255
-0.330516507159073 0.278277685210025 0.182439063989336 0 0 0 0 133 255
-0.344273198900954 0.303019190806667 0.170299408023084 0 0 0 0 133 255
-0.390142203808223 0.30126922007173 0.142719266983986 0 0 0 0 133 255
-0.411850175683155 0.288631038390053 0.131546881677092 0 0 0 0 133 255
-0.440460845373972 0.285374839929887 0.114664911078538 0 0 0 0 133 255
-0.384273150072446 0.205608361931431 0.16053764126489 0 0 0 0 133 255
-0.38648505014014 0.241676094745994 0.153920346658714 0 0 0 0 133 255
-0.380003823125677 0.273868068092063 0.153123481431964 0 0 0 0 133 255
-0.417797279336831 0.328190291136652 0.121492846552619 0 0 0 0 133 255
-0.448812839717929 0.34068347376057 0.100309302161003 0 0 0 0 133 255
-0.498590157720157 0.301550183103991 0.0761716533266911 0 0 0 0 133 255
-0.510541437762815 0.265658825682408 0.0717433474588178 0 0 0 0 133 255
-0.470943686402608 0.275016452300549 0.0973373086861198 0 0 0 0 133 255
-0.491622067481954 0.226505509096851 0.0873337353996269 0 0 0 0 133 255
-0.467045336109082 0.222225753364291 0.103849547012801 0 0 0 0 133 255
-0.523238326232646 0.294779059745368 0.0596394647558126 0 0 0 0 133 255
-0.532411104042238 0.343051709121854 0.0459414872010024 0 0 0 0 133 255
-0.557740474235247 0.268509400939376 0.0386417088260461 0 0 0 0 133 255
-0.589937347867504 0.270348562258278 0.00740773187431669 0 0 0 0 133 255
-0.543382109666505 0.200496750998135 0.0388415608934668 0 0 0 0 133 255
-0.543409031029789 0.242203613980842 0.0476698915348314 0 0 0 0 133 255
-0.597660494547576 0.305387104280877 0.00162083658413585 0 0 0 0 133 255
-0.647619993854652 0.253182269551494 -0.0659118975484772 0 0 0 0 133 255
-0.632553594035894 0.275137159559486 -0.0414869784340427 0 0 0 0 133 255
-0.649038157784219 0.287567112947652 -0.0623136256023299 0 0 0 0 133 255
-0.616355265283761 0.253783481925527 -0.0225006145455385 0 0 0 0 133 255
-0.626943553888939 0.21508203690345 -0.0443406950717909 0 0 0 0 133 255
-0.641723881879508 0.329014498398959 -0.0531393934555175 0 0 0 0 133 255
-0.622933065614788 0.33755941095834 -0.0279947165361547 0 0 0 0 133 255
-0.638922294511346 0.363950779456228 -0.0516890887198942 0 0 0 0 133 255
-0.690782764864682 0.309721858251423 -0.125646883546205 0 0 0 0 133 255
-0.664764035428297 0.330033007684881 -0.0830990067286559 0 0 0 0 133 255
-0.679956244386346 0.328322331139954 -0.106996734543937 0 0 0 0 133 255
-0.694009041236018 0.354884505531008 -0.128193505466024 0 0 0 0 133 255
-0.712370520990075 0.32415043600042 -0.156798603221278 0 0 0 0 133 255
-0.730252847540862 0.346409044024607 -0.181813928791664 0 0 0 0 133 255
-0.688274364082258 0.241052244463244 -0.126244407105901 0 0 0 0 133 255
-0.710019277808149 0.414825992859731 -0.151253215200857 0 0 0 0 133 255
-0.721105344774194 0.440335009598432 -0.168414734833117 0 0 0 0 133 255
-0.701620629329014 0.392496379147965 -0.138354014085141 0 0 0 0 133 255
-0.713764528578557 0.37225692214028 -0.158790927815171 0 0 0 0 133 255
-0.742870036584162 0.388266355017141 -0.200721216156393 0 0 0 0 133 255
-0.762995621885276 0.470676502704105 -0.231229153820155 0 0 0 0 133 255
-0.773297514508932 0.430330647157318 -0.239840556292298 0 0 0 0 133 255
-0.778423797946657 0.391901644773202 -0.230790993781323 0 0 0 0 133 255
-0.771105365034079 0.345591882235728 -0.213320786095005 0 0 0 0 133 255
-0.799919169854754 0.533151821968753 -0.281998015013673 0 0 0 0 133 255
-0.808248859830151 0.492686210297245 -0.284722314482028 0 0 0 0 133 255
-0.812888679788597 0.528327135248629 -0.307901773753485 0 0 0 0 133 255
-0.798588501593658 0.407351872555784 -0.261818048485033 0 0 0 0 133 255
-0.803225645970419 0.451562898873381 -0.266588556708891 0 0 0 0 133 255
-0.780634154485077 0.5489881330527 -0.261890075727998 0 0 0 0 133 255
-0.77584301593451 0.48980985954576 -0.250086079558058 0 0 0 0 133 255
-0.760930947823121 0.53434445973697 -0.233319293026984 0 0 0 0 133 255
-0.77130538565304 0.641051654503816 -0.289872092299636 0 0 0 0 133 255
-0.78885977275238 0.590513794734653 -0.281667148326163 0 0 0 0 133 255
-0.809308582956967 0.631084718887562 -0.315537114806724 0 0 0 0 133 255
-0.773732066341575 0.672608755683563 -0.308476741592071 0 0 0 0 133 255
-0.797067060107833 0.664507008976707 -0.325880539926473 0 0 0 0 133 255
-0.798575430715062 0.693541840319592 -0.350901864021951 0 0 0 0 133 255
-0.770871864890605 0.716009073056609 -0.332220004109285 0 0 0 0 133 255
-0.763280063474117 0.741960404251398 -0.341090447820063 0 0 0 0 133 255
-0.78582665187527 0.741165455617047 -0.371726981342855 0 0 0 0 133 255
-0.771599283389128 0.787203393858277 -0.387167579112574 0 0 0 0 133 255
-0.783622835395882 0.790974646677653 -0.434896397025374 0 0 0 0 133 255
-0.807238741977252 0.728648777450148 -0.424108364097304 0 0 0 0 133 255
-0.794678104441031 0.754038572923543 -0.414852198833803 0 0 0 0 133 255
-0.788019630758163 0.785742256364564 -0.46207186837849 0 0 0 0 133 255
-0.802625516627089 0.744699296735355 -0.464090468430234 0 0 0 0 133 255
-0.832537542575054 0.658149507715208 -0.412242108505799 0 0 0 0 133 255
-0.795747347594317 0.71783323099931 -0.488474256697893 0 0 0 0 133 255
-0.78486415052852 0.685716663718117 -0.48395942820973 0 0 0 0 133 255
-0.778399009294009 0.598010645113104 -0.471921180431678 0 0 0 0 133 255
-0.791049197291394 0.64247310985843 -0.480992991828614 0 0 0 0 133 255
-0.723865073298531 0.598771107917427 -0.465954943987684 0 0 0 0 133 255
-0.713407609166854 0.572836722034138 -0.461761030139062 0 0 0 0 133 255
-0.731936679252478 0.639009938622769 -0.471358660701813 0 0 0 0 133 255
-0.744645532001571 0.662872708927043 -0.475466684438261 0 0 0 0 133 255
-0.685242272541943 0.619115175602556 -0.462578657802059 0 0 0 0 133 255
-0.706069699992609 0.662797523588489 -0.469533595287944 0 0 0 0 133 255
-0.73432437991626 0.704816727120227 -0.477501927699334 0 0 0 0 133 255
-0.733058513564802 0.736217831861123 -0.479970456480495 0 0 0 0 133 255
-0.668191904784779 0.654395418833302 -0.464382474430022 0 0 0 0 133 255
-0.635128652096739 0.642696005639994 -0.459639495617107 0 0 0 0 133 255
-0.703814697441496 0.737253143037855 -0.476213881871692 0 0 0 0 133 255
-0.691037642289201 0.71212582146823 -0.472169569365089 0 0 0 0 133 255
-0.60747858647107 0.687369847109822 -0.464959230925529 0 0 0 0 133 255
-0.661194037359388 0.690854097665503 -0.467742642699101 0 0 0 0 133 255
-0.664393930303219 0.752914486324358 -0.47491822853658 0 0 0 0 133 255
-0.672779012707545 0.788966677401092 -0.47921008815602 0 0 0 0 133 255
-0.70107785319612 0.792363953082492 -0.481728859821769 0 0 0 0 133 255
-0.630282351117214 0.730754403393601 -0.471147952416569 0 0 0 0 133 255
-0.614844649764703 0.75461208938735 -0.473179219295703 0 0 0 0 133 255
-0.579630096895061 0.719420026042352 -0.468607931279592 0 0 0 0 133 255
-0.631548833276777 0.783462863912227 -0.47649820130383 0 0 0 0 133 255
-0.579991900410871 0.757262223214586 -0.470384933580399 0 0 0 0 133 255
-0.674389763831885 0.839915411219961 -0.484057260544745 0 0 0 0 133 255
-0.712267727359331 0.864944947972687 -0.489717812868307 0 0 0 0 133 255
-0.700672513417887 0.915842227383819 -0.494021020615884 0 0 0 0 133 255
-0.654501828519836 0.874570919534178 -0.485873290825493 0 0 0 0 133 255
-0.660227320011996 0.90345179863752 -0.489784764252759 0 0 0 0 133 255
-0.556790987396402 0.820501568655236 -0.470003458069677 0 0 0 0 133 255
-0.627636813229831 0.854471515939916 -0.480646293131766 0 0 0 0 133 255
-0.58629263068274 0.834693555545189 -0.474439721125463 0 0 0 0 133 255
-0.62299587916772 0.931619000737236 -0.49022658878281 0 0 0 0 133 255
-0.608657014762128 0.880693725068774 -0.481423611857748 0 0 0 0 133 255
-0.555870044552303 0.859902612591156 -0.473692681951857 0 0 0 0 133 255
-0.581653721122231 0.868979852008751 -0.47729293475889 0 0 0 0 133 255
-0.524813110150226 0.852579729969121 -0.469862465797315 0 0 0 0 133 255
-0.598893480660715 0.955247809467049 -0.491912079758671 0 0 0 0 133 255
-0.578118648700434 0.926229371173919 -0.485557236189019 0 0 0 0 133 255
-0.525099088490594 0.891102992415252 -0.475405445959649 0 0 0 0 133 255
-0.536197880731469 0.937014433384079 -0.483760353758717 0 0 0 0 133 255
-0.565076836428731 0.968558474939091 -0.491317931655172 0 0 0 0 133 255
-0.451843425049615 0.897748650047788 -0.469579474615515 0 0 0 0 133 255
-0.497874342893277 0.913335535272127 -0.476470695221263 0 0 0 0 133 255
-0.512174108607545 0.951633791557575 -0.484010087547747 0 0 0 0 133 255
-0.455196655805121 0.933333253236182 -0.473732307758291 0 0 0 0 133 255
-0.398651966425459 0.926145496769752 -0.461324093985465 0 0 0 0 133 255
-0.541047127990352 0.977142392166023 -0.480018110599363 0 0 0 0 133 255
-0.548203435553945 0.974427654212957 -0.42819994257746 0 0 0 0 133 255
-0.57068956362195 0.966567407235545 -0.442472342040328 0 0 0 0 133 255
-0.592653898760631 0.957903108381605 -0.417792891965101 0 0 0 0 133 255
-0.593739718990063 0.95448845965893 -0.384935175578011 0 0 0 0 133 255
-0.618887572379793 0.946577240452304 -0.407928447612217 0 0 0 0 133 255
-0.637175722953024 0.917449645243935 -0.362071460846653 0 0 0 0 133 255
-0.643847717026282 0.93491188735203 -0.400910280934282 0 0 0 0 133 255
-0.659274824323179 0.882526504850091 -0.343707779755435 0 0 0 0 133 255
-0.680954542861311 0.905718114905 -0.378952340296675 0 0 0 0 133 255
-0.616790704539476 0.852954264980486 -0.295320468057169 0 0 0 0 133 255
-0.638669792632386 0.870697777108299 -0.322653019730396 0 0 0 0 133 255
-0.667854175825312 0.859882509831398 -0.331018520814452 0 0 0 0 133 255
-0.681662780954918 0.819988523571745 -0.309534679181865 0 0 0 0 133 255
-0.684064381908334 0.783242543998114 -0.289881408078194 0 0 0 0 133 255
-0.702071433665746 0.798925799094153 -0.315994820255576 0 0 0 0 133 255
-0.704337035475487 0.747645941074581 -0.289793491898908 0 0 0 0 133 255
-0.691012365918968 0.733022423330665 -0.269835091756484 0 0 0 0 133 255
-0.71993091586776 0.778457100144055 -0.3207445863 0 0 0 0 133 255
-0.74060539138674 0.743549279838719 -0.319676090374753 0 0 0 0 133 255
-0.71776411261999 0.829925669158007 -0.346526363581495 0 0 0 0 133 255
-0.738949192841013 0.83826121444544 -0.37244375818416 0 0 0 0 133 255
-0.750617128174181 0.796143281250504 -0.362300712867244 0 0 0 0 133 255
-0.640763307530488 0.70733557442444 -0.209338458242662 0 0 0 0 133 255
-0.66764332837967 0.701614302866655 -0.232120590052662 0 0 0 0 133 255
-0.65511311638988 0.786613350626435 -0.267464765325959 0 0 0 0 133 255
-0.671133862952736 0.756991087515332 -0.26531732685881 0 0 0 0 133 255
-0.722014102161683 0.691039127937863 -0.274822305690808 0 0 0 0 133 255
-0.725610337150241 0.64425315873834 -0.253394836999498 0 0 0 0 133 255
-0.699165887906313 0.639246842061217 -0.228701316193274 0 0 0 0 133 255
-0.731103185174569 0.715312896414857 -0.296058282506556 0 0 0 0 133 255
-0.746040315111133 0.692081849004484 -0.29642046656262 0 0 0 0 133 255
-0.738189258803761 0.663895341579637 -0.274125042777057 0 0 0 0 133 255
-0.755503027678687 0.625965984849782 -0.268523515070822 0 0 0 0 133 255
-0.624447505509546 0.609436504224469 -0.144604383412709 0 0 0 0 133 255
-0.661113336823125 0.610837123035544 -0.180627694003096 0 0 0 0 133 255
-0.663167605053206 0.58298783830456 -0.16891906629534 0 0 0 0 133 255
-0.63598816073741 0.669674311152771 -0.185733786974082 0 0 0 0 133 255
-0.665113428035607 0.64982980806533 -0.203887530166791 0 0 0 0 133 255
-0.718032577254907 0.602517613358986 -0.225203153908351 0 0 0 0 133 255
-0.685625938712955 0.614895503464359 -0.204753857173118 0 0 0 0 133 255
-0.698689579826314 0.581541325597692 -0.198590459237166 0 0 0 0 133 255
-0.701547933937662 0.522376948848788 -0.170950412341329 0 0 0 0 133 255
-0.647079816441465 0.52344693942235 -0.12406206910106 0 0 0 0 133 255
-0.690608493858312 0.50465576267147 -0.15293851079335 0 0 0 0 133 255
-0.728108707534803 0.565102049005342 -0.214500192002001 0 0 0 0 133 255
-0.751871169923717 0.584627134073169 -0.243998835312808 0 0 0 0 133 255
-0.72159566428321 0.531331536244454 -0.194399968284854 0 0 0 0 133 255
-0.743257519390405 0.512805023368008 -0.207465092001098 0 0 0 0 133 255
-0.626635863208209 0.496086642057612 -0.0919919453328563 0 0 0 0 133 255
-0.612432549434654 0.52004858408668 -0.0896473606100287 0 0 0 0 133 255
-0.596630797035788 0.504549763011765 -0.0671359022973916 0 0 0 0 133 255
-0.60314979940485 0.571828703470481 -0.105635059247204 0 0 0 0 133 255
-0.618238085784899 0.588018181893529 -0.128183193527547 0 0 0 0 133 255
-0.627272273640787 0.54325551210194 -0.115064371093943 0 0 0 0 133 255
-0.655885708485981 0.487121891080872 -0.114474909138554 0 0 0 0 133 255
-0.674869437245834 0.492756008044291 -0.133575524225701 0 0 0 0 133 255
-0.639453295373608 0.401382033875902 -0.0598281368156979 0 0 0 0 133 255
-0.649573549520443 0.433624609986849 -0.0829008243559238 0 0 0 0 133 255
-0.600472601577855 0.434194657541608 -0.0378643032806408 0 0 0 0 133 255
-0.626086692084192 0.43261351136998 -0.0608110605010711 0 0 0 0 133 255
-0.687768441770909 0.449954237799339 -0.129229671214128 0 0 0 0 133 255
-0.707989024242162 0.465243220147526 -0.157987492217679 0 0 0 0 133 255
-0.684348000460656 0.383100870123587 -0.114137805511285 0 0 0 0 133 255
-0.670816827709776 0.430496650562306 -0.104371351280467 0 0 0 0 133 255
-0.578616553368975 0.415676805534673 -0.0113415187841624 0 0 0 0 133 255
-0.554177977714707 0.431792158491144 0.00351726679918586 0 0 0 0 133 255
-0.569063857517936 0.523716731756079 -0.0496988181148485 0 0 0 0 133 255
-0.557517596971199 0.496989031442252 -0.0264254690637677 0 0 0 0 133 255
-0.574573267920832 0.468239265536328 -0.0292429032873901 0 0 0 0 133 255
-0.608810183355285 0.384492424047901 -0.0262666735803282 0 0 0 0 133 255
-0.515026718408265 0.458975348786381 0.0271006645492656 0 0 0 0 133 255
-0.514096567691668 0.485862011785412 0.0181293407973226 0 0 0 0 133 255
-0.48894571629335 0.500179412678684 0.0353162415532108 0 0 0 0 133 255
-0.531374558298911 0.53936918857745 -0.0199326470760705 0 0 0 0 133 255
-0.511061380846246 0.532755977549214 0.00339538099455179 0 0 0 0 133 255
-0.529257158730021 0.507383459782878 -0.00343683327967436 0 0 0 0 133 255
-0.497212807156473 0.556552842193898 0.00567094333314173 0 0 0 0 133 255
-0.487563590598994 0.58866846027699 -0.00219545926150049 0 0 0 0 133 255
-0.473545142698538 0.575032866355215 0.0175748467476806 0 0 0 0 133 255
-0.518732893055265 0.577674627133923 -0.0247769895098429 0 0 0 0 133 255
-0.504625780205252 0.639921269238338 -0.0483420565044352 0 0 0 0 133 255
-0.49869201335811 0.614616282978186 -0.0269858428846866 0 0 0 0 133 255
-0.479928836461987 0.637898502787556 -0.0226428388090897 0 0 0 0 133 255
-0.537639451066772 0.600016220353398 -0.0541801836510092 0 0 0 0 133 255
-0.576974878548641 0.570584926462241 -0.079157549701838 0 0 0 0 133 255
-0.562441595389256 0.599763676643229 -0.078833247507193 0 0 0 0 133 255
-0.539350399133432 0.630730082009879 -0.0736873581478375 0 0 0 0 133 255
-0.522109232342929 0.689917686092579 -0.0963938928205739 0 0 0 0 133 255
-0.512128559317784 0.663212174955323 -0.0692782639697659 0 0 0 0 133 255
-0.570648424317113 0.640066022630637 -0.106835293639067 0 0 0 0 133 255
-0.598783427117508 0.626187491596578 -0.127802152149041 0 0 0 0 133 255
-0.545534668723841 0.69447942792832 -0.119940088357719 0 0 0 0 133 255
-0.558593129199303 0.668744012410394 -0.113028199330623 0 0 0 0 133 255
-0.58355520311009 0.687579221262776 -0.144239609546266 0 0 0 0 133 255
-0.615990111748307 0.664094720871246 -0.163550570012133 0 0 0 0 133 255
-0.583803738554904 0.659996014219192 -0.129818416021634 0 0 0 0 133 255
-0.542915798343848 0.735871642372104 -0.147359647931165 0 0 0 0 133 255
-0.566283636894396 0.73716485592735 -0.167856130619977 0 0 0 0 133 255
-0.603675923564729 0.719195541005065 -0.181504798308232 0 0 0 0 133 255
-0.57617350425222 0.778740685659488 -0.208179557614117 0 0 0 0 133 255
-0.563319270136071 0.80398706580838 -0.221503592023363 0 0 0 0 133 255
-0.592896351530567 0.745772486032755 -0.190733596178354 0 0 0 0 133 255
-0.632740021399795 0.753596574836234 -0.227548144726325 0 0 0 0 133 255
-0.606916080373897 0.779346778768563 -0.224512477696868 0 0 0 0 133 255
-0.580593149500749 0.819220965973791 -0.245874285005891 0 0 0 0 133 255
-0.629686337378701 0.805094738758065 -0.261566102851671 0 0 0 0 133 255
-0.584361108378089 0.84606288771891 -0.271583597301476 0 0 0 0 133 255
-0.604193563866231 0.822468379685925 -0.260457237515782 0 0 0 0 133 255
-0.624615324278092 0.82987205223032 -0.278589834842367 0 0 0 0 133 255
-0.542398611351387 0.861321147550385 -0.263945445680263 0 0 0 0 133 255
-0.538440522305693 0.905989254347953 -0.298342045197686 0 0 0 0 133 255
-0.553803044361299 0.882838160361115 -0.2878528971527 0 0 0 0 133 255
-0.602306430527946 0.889608185421726 -0.319117515506792 0 0 0 0 133 255
-0.558673132290051 0.917895002962703 -0.318543878752525 0 0 0 0 133 255
-0.597674872152893 0.9232339698049 -0.343512228227407 0 0 0 0 133 255
-0.557910551901933 0.953114997262057 -0.347596580735587 0 0 0 0 133 255
-0.517357146021802 0.9616426506648 -0.332142605351203 0 0 0 0 133 255
-0.512061550292245 0.986382194910305 -0.350803976844557 0 0 0 0 133 255
-0.541458936455847 0.975054161831321 -0.37058054992085 0 0 0 0 133 255
-0.560843869406101 0.969116240456291 -0.398280418283628 0 0 0 0 133 255
-0.488564567426281 0.994898617275433 -0.375114280318039 0 0 0 0 133 255
-0.472541775338057 0.993136898719135 -0.349317180890057 0 0 0 0 133 255
-0.441474101249166 0.976659136154823 -0.39828383892958 0 0 0 0 133 255
-0.439833177772009 0.977227573220277 -0.370461717490986 0 0 0 0 133 255
-0.46697957812539 0.986100130557233 -0.39256532610098 0 0 0 0 133 255
-0.512864003521826 0.987145798448121 -0.417257991582762 0 0 0 0 133 255
-0.403930080358086 0.965673678735075 -0.361287441385725 0 0 0 0 133 255
-0.431322723194421 0.981171294379239 -0.342160088112372 0 0 0 0 133 255
-0.438701967787747 0.952587868771005 -0.288578322147569 0 0 0 0 133 255
-0.478931782579215 0.951846030733964 -0.305399546918084 0 0 0 0 133 255
-0.487509036417121 0.923037492960242 -0.2852982471947 0 0 0 0 133 255
-0.506726430277262 0.940652653487349 -0.309208979421515 0 0 0 0 133 255
-0.445171692539523 0.912678887537194 -0.255308340966239 0 0 0 0 133 255
-0.427522353056417 0.931622761937604 -0.266624723156581 0 0 0 0 133 255
-0.479819285132626 0.900248756087448 -0.263181855034749 0 0 0 0 133 255
-0.467189424339628 0.861579945107659 -0.22524686911136 0 0 0 0 133 255
-0.501952191867736 0.860095246673787 -0.241101297310633 0 0 0 0 133 255
-0.488120614943259 0.823643283957632 -0.20247315267642 0 0 0 0 133 255
-0.532678450661266 0.833504363287977 -0.233973981924427 0 0 0 0 133 255
-0.540376375476529 0.797826286623321 -0.203658166607097 0 0 0 0 133 255
-0.446942408720257 0.820298328456344 -0.178906563183651 0 0 0 0 133 255
-0.420685101878704 0.820513745520851 -0.166125756920946 0 0 0 0 133 255
-0.44152245675342 0.799704259266267 -0.15677499606081 0 0 0 0 133 255
-0.456134202186861 0.844100797426769 -0.204147766674881 0 0 0 0 133 255
-0.482507324559833 0.788632612088742 -0.165679333617647 0 0 0 0 133 255
-0.482236708556225 0.763811251413606 -0.141369808712984 0 0 0 0 133 255
-0.507534836333252 0.77601849288425 -0.166034069509943 0 0 0 0 133 255
-0.534683219383559 0.778758549964536 -0.18245203116905 0 0 0 0 133 255
-0.507657514434201 0.735806743276852 -0.128422182426022 0 0 0 0 133 255
-0.378013456839992 0.754317426425379 -0.081596692731383 0 0 0 0 133 255
-0.395056509795945 0.767123207015839 -0.102415117586883 0 0 0 0 133 255
-0.396393596043228 0.816495004598773 -0.150332866535302 0 0 0 0 133 255
-0.411225754349982 0.781468426557893 -0.123984035918377 0 0 0 0 133 255
-0.438836252640067 0.742866276662249 -0.0993546372411119 0 0 0 0 133 255
-0.372677476140558 0.712706382932238 -0.0387008429935414 0 0 0 0 133 255
-0.425859236954505 0.704906945892245 -0.0556347785462119 0 0 0 0 133 255
-0.476739688398013 0.723168487035173 -0.099288139234976 0 0 0 0 133 255
