ply
format ascii 1.0
comment File exported by Rhinoceros Version 7.0
element vertex 665
property float x
property float y
property float z
property float nx
property float ny
property float nz
property uchar red
property uchar green
property uchar blue
end_header
-0.475410049538314 0.15261057258047 0.391925307746898 0 0 0 0 133 255
-0.457109633508513 0.159142980829007 0.361742705254075 0 0 0 0 133 255
-0.470876990680308 0.131965833287546 0.370113575593587 0 0 0 0 133 255
-0.443629428589707 0.115276880347532 0.305933033132172 0 0 0 0 133 255
-0.4606394797505 0.109092463286947 0.33435668169877 0 0 0 0 133 255
-0.485857210625846 0.0910234511426565 0.371171720136179 0 0 0 0 133 255
-0.478724977612736 0.0530336031828439 0.331934948055838 0 0 0 0 133 255
-0.490775328217813 0.0652381210664469 0.363521883173369 0 0 0 0 133 255
-0.51399758588508 0.0991285108798328 0.430720521183948 0 0 0 0 133 255
-0.493200976687821 0.112975382271908 0.399984290502348 0 0 0 0 133 255
-0.507589156330076 0.0459306917998073 0.383281914594742 0 0 0 0 133 255
-0.523823661890874 0.00747678617909532 0.39175396607549 0 0 0 0 133 255
-0.504580410158323 0.0263284240536779 0.364915529938171 0 0 0 0 133 255
-0.519356503601759 0.0601481279164407 0.415871905522024 0 0 0 0 133 255
-0.532625742612527 0.0834766744022187 0.458951376680326 0 0 0 0 133 255
-0.555688456200131 0.0776970837390301 0.508589403592693 0 0 0 0 133 255
-0.551003279994923 0.0386069315391747 0.466805838167757 0 0 0 0 133 255
-0.546325637228972 0.0115946031000247 0.443120174765678 0 0 0 0 133 255
-0.547966774963994 -0.0289814201557318 0.427568338280166 0 0 0 0 133 255
-0.563888728129004 0.0385564638111318 0.512392619338072 0 0 0 0 133 255
-0.571852114584291 -0.0344802761482892 0.513803039707892 0 0 0 0 133 255
-0.575774926516821 0.0150858506139098 0.548821445769544 0 0 0 0 133 255
-0.574745244232933 0.0498123214263442 0.555415220892076 0 0 0 0 133 255
-0.583833400499464 -0.0171649252695067 0.579967400013835 0 0 0 0 133 255
-0.561973176119611 -0.0233404001236616 0.605080232499289 0 0 0 0 133 255
-0.542724910870014 -0.00736408898536998 0.628190190430866 0 0 0 0 133 255
-0.534007980648803 0.054470997007632 0.599088739783383 0 0 0 0 133 255
-0.556926051745464 0.0274410293360566 0.587521420783755 0 0 0 0 133 255
-0.5013311787826 0.117203111680838 0.593094688082762 0 0 0 0 133 255
-0.531354103689731 0.12851673282714 0.570905393346378 0 0 0 0 133 255
-0.495585412254039 0.0530381723224215 0.634605002745512 0 0 0 0 133 255
-0.485401376495766 0.0989341237807216 0.609710220532848 0 0 0 0 133 255
-0.461145225709242 0.183154974648496 0.554628893972407 0 0 0 0 133 255
-0.448403054838858 0.157893945509203 0.576212169214113 0 0 0 0 133 255
-0.448274306488604 0.112388369082514 0.609937289400247 0 0 0 0 133 255
-0.396321934311083 0.155811550442826 0.584161924652998 0 0 0 0 133 255
-0.378616610693346 0.204387668881603 0.548380295903577 0 0 0 0 133 255
-0.367988700639617 0.17157891919715 0.572741124583443 0 0 0 0 133 255
-0.338320271995938 0.170965395114557 0.571164733212865 0 0 0 0 133 255
-0.317600531301663 0.244238016556383 0.519420433448988 0 0 0 0 133 255
-0.290143764897105 0.24029510773795 0.521728489022751 0 0 0 0 133 255
-0.314822463970714 0.199089889593084 0.550941905728758 0 0 0 0 133 255
-0.311855528975651 0.158817319359039 0.572013019685533 0 0 0 0 133 255
-0.272977476726291 0.183451942868201 0.549851010629431 0 0 0 0 133 255
-0.250450889423086 0.214254794822185 0.527563500723982 0 0 0 0 133 255
-0.235844204666892 0.253917899992028 0.50229529777194 0 0 0 0 133 255
-0.232059820445535 0.182515554906775 0.538738769127353 0 0 0 0 133 255
-0.171393394019309 0.223269599725241 0.500334503249389 0 0 0 0 133 255
-0.211511500035993 0.221689235189308 0.512962054372081 0 0 0 0 133 255
-0.16200117502792 0.280986032338988 0.46765762860535 0 0 0 0 133 255
-0.119206794620048 0.26613090646015 0.463595386474724 0 0 0 0 133 255
-0.135164540822121 0.166305733833554 0.51970654691488 0 0 0 0 133 255
-0.142328669580731 0.198722987197116 0.504772234971474 0 0 0 0 133 255
-0.0797444300159963 0.232330122486697 0.471580423666786 0 0 0 0 133 255
-0.144703827151269 0.22695410111847 0.490780058926557 0 0 0 0 133 255
-0.119757416874817 0.214542819995597 0.490950011700676 0 0 0 0 133 255
-0.0605299301552474 0.285198050175685 0.439146199012529 0 0 0 0 133 255
-0.0391437631346259 0.264357187343724 0.44498404061641 0 0 0 0 133 255
-0.0522206190368862 0.220761467608351 0.468502417762944 0 0 0 0 133 255
-0.0520009494252405 0.177933777248365 0.485285149720082 0 0 0 0 133 255
-0.0700823534246939 0.204047069564061 0.482304741643921 0 0 0 0 133 255
7.98474414735531E-05 0.197926696025725 0.456426732337267 0 0 0 0 133 255
-0.000837753561908211 0.227132868820932 0.445405173080849 0 0 0 0 133 255
0.0386035660816983 0.2331514553357 0.427268879795374 0 0 0 0 133 255
0.0589597945701326 0.271534969337659 0.404119721424331 0 0 0 0 133 255
0.021689498968268 0.298991572701052 0.409035906790734 0 0 0 0 133 255
0.0500793990837911 0.162233197831355 0.436140143704122 0 0 0 0 133 255
0.0435284878150023 0.194987571330536 0.432876909604386 0 0 0 0 133 255
0.0774967310778227 0.208679205393988 0.408396472331072 0 0 0 0 133 255
0.103777997543765 0.201857453563432 0.393290986586826 0 0 0 0 133 255
0.124471448125168 0.283818467300054 0.362071976363149 0 0 0 0 133 255
0.117569791016125 0.254391056152647 0.373142036592042 0 0 0 0 133 255
0.130321228712177 0.16584228359839 0.381483740941945 0 0 0 0 133 255
0.136125217265631 0.135482776539031 0.383007957636828 0 0 0 0 133 255
0.141284424186767 0.212512950032983 0.364626725637363 0 0 0 0 133 255
0.161167918699742 0.191942069540064 0.353999995970172 0 0 0 0 133 255
0.191778508353123 0.279432346662102 0.314319007904968 0 0 0 0 133 255
0.202778718689664 0.24647032541408 0.312333599739909 0 0 0 0 133 255
0.207099855308509 0.155204225171205 0.326954791578636 0 0 0 0 133 255
0.188273643300681 0.186379767144696 0.335036406663984 0 0 0 0 133 255
0.209789129507484 0.204186140704893 0.315488404538412 0 0 0 0 133 255
0.250100700841951 0.182012038746338 0.289081440071031 0 0 0 0 133 255
0.264438525360564 0.264555699226305 0.258151778294594 0 0 0 0 133 255
0.278248286576445 0.217308963075046 0.25760798058109 0 0 0 0 133 255
0.271508488616499 0.177767868311065 0.271221710637771 0 0 0 0 133 255
0.279598171739831 0.124472995637275 0.269121655586859 0 0 0 0 133 255
0.301398940539858 0.193833951129414 0.238481345440345 0 0 0 0 133 255
0.306817819107103 0.159926266676006 0.239547681090224 0 0 0 0 133 255
0.337278327475789 0.203884772294012 0.195472934651195 0 0 0 0 133 255
0.327824322689882 0.237525804593904 0.195734855586977 0 0 0 0 133 255
0.335679782893499 0.128594361576942 0.198851611871726 0 0 0 0 133 255
0.335159504979752 0.170772178114043 0.20272962072854 0 0 0 0 133 255
0.358945533478321 0.152375444511302 0.166474302432962 0 0 0 0 133 255
0.370110297784738 0.17612311617453 0.144825876217783 0 0 0 0 133 255
0.3775960926029 0.200450676448002 0.126466325525685 0 0 0 0 133 255
0.379613302865989 0.149831563008258 0.130565909318824 0 0 0 0 133 255
0.388182420779849 0.100015805655874 0.119770496158463 0 0 0 0 133 255
0.408741188311076 0.159928836358082 0.0778438550063441 0 0 0 0 133 255
0.392904755467882 0.166079167441192 0.105989328856904 0 0 0 0 133 255
0.400350602640962 0.117798205121668 0.0981985844203199 0 0 0 0 133 255
0.411505854278727 0.085212068659206 0.0791932145884048 0 0 0 0 133 255
0.440427197572528 0.121714187077516 0.0294462563230215 0 0 0 0 133 255
0.416164465703415 0.130909555824126 0.0707320638650358 0 0 0 0 133 255
0.432469198004321 0.0743769240772608 0.0451957129939453 0 0 0 0 133 255
0.419948096890905 0.0423334515088828 0.0636308128754525 0 0 0 0 133 255
0.435455187265551 0.0152136939300319 0.0292421086351523 0 0 0 0 133 255
0.459905507452359 0.0637366657290702 -0.000462963526571457 0 0 0 0 133 255
0.465747030278032 0.0954945576957364 -0.0121368840665983 0 0 0 0 133 255
0.452403664071449 0.0947653988008863 0.01206905523492 0 0 0 0 133 255
0.453789754225676 0.0318662704229626 -0.000851571999215393 0 0 0 0 133 255
0.447314564492413 0.00510827192947867 -0.0107895782387842 0 0 0 0 133 255
0.464700742213295 0.0206412296643841 -0.0424411855119792 0 0 0 0 133 255
0.452895520725038 -0.0146420908342741 -0.0507986445581933 0 0 0 0 133 255
0.436640176625294 -0.0457262846572864 -0.0433668887565575 0 0 0 0 133 255
0.467100280491527 -0.00242133769928039 -0.104646446346397 0 0 0 0 133 255
0.469829763877921 0.0143188505037006 -0.0786447551061637 0 0 0 0 133 255
0.452727168187911 -0.0358470875534806 -0.102918923384636 0 0 0 0 133 255
0.431493657994792 -0.07861155417689 -0.10261340527055 0 0 0 0 133 255
0.472679828915075 -0.0107996527097683 -0.155328907601561 0 0 0 0 133 255
0.447155726827361 -0.0664444647159714 -0.153272723225615 0 0 0 0 133 255
0.430126629423673 -0.100213356696326 -0.159240907102407 0 0 0 0 133 255
0.468145221227773 -0.030321564599917 -0.185567774220745 0 0 0 0 133 255
0.46018443682966 -0.0431755406058237 -0.161990490161184 0 0 0 0 133 255
0.423449093900858 -0.100802584489442 -0.123958732239927 0 0 0 0 133 255
0.414111472073545 -0.123482499464782 -0.138633092888192 0 0 0 0 133 255
0.396205468609073 -0.159564684483035 -0.147835281706577 0 0 0 0 133 255
0.39909498096594 -0.146557595648529 -0.123740191500443 0 0 0 0 133 255
0.383229685371106 -0.153136520558651 -0.0671636697256456 0 0 0 0 133 255
0.364540118061171 -0.208118491683769 -0.120251131573509 0 0 0 0 133 255
0.376807646885631 -0.182544285284573 -0.10956374416129 0 0 0 0 133 255
0.355065566853819 -0.192047352102618 -0.0368988143019469 0 0 0 0 133 255
0.363610198873276 -0.198017749391786 -0.0848578268373689 0 0 0 0 133 255
0.330834078254894 -0.261282163997582 -0.0970126623910647 0 0 0 0 133 255
0.345302798399589 -0.231801386614533 -0.0854523405384072 0 0 0 0 133 255
0.330547016765964 -0.253750144228661 -0.0704170603486289 0 0 0 0 133 255
0.32758655202123 -0.247384526842316 -0.04284656022097 0 0 0 0 133 255
0.316448452187895 -0.256738745965588 -0.0187929297204397 0 0 0 0 133 255
0.327487988846963 -0.229052620227908 -0.00596319777374611 0 0 0 0 133 255
0.306393561347651 -0.29444859033342 -0.0619349527521712 0 0 0 0 133 255
0.298342579659424 -0.289112758392461 -0.0114479332145995 0 0 0 0 133 255
0.292538853700993 -0.28140110605415 0.0244381685450069 0 0 0 0 133 255
0.280015677198462 -0.307572531164155 0.0219899001249948 0 0 0 0 133 255
0.290739877743419 -0.312692387273084 -0.0285689376178445 0 0 0 0 133 255
0.273789140756544 -0.344882109126779 -0.0348817390636043 0 0 0 0 133 255
0.260785792066398 -0.359840930643188 -0.00716144913982268 0 0 0 0 133 255
0.240994512384577 -0.387326668195959 0.0175089966356298 0 0 0 0 133 255
0.245010814914194 -0.392982693336207 -0.0324416503733758 0 0 0 0 133 255
0.221814687864177 -0.424677851632181 -0.0287366911000241 0 0 0 0 133 255
0.262929579523307 -0.362305361981617 -0.0792163284350777 0 0 0 0 133 255
0.199682528011883 -0.457985174871803 0.00426235099290824 0 0 0 0 133 255
0.216485771149035 -0.434827394857846 -0.0014601141535731 0 0 0 0 133 255
0.190730787024636 -0.464929052478036 -0.0351405136432266 0 0 0 0 133 255
0.221780002865655 -0.413806464197742 -0.0861270328680753 0 0 0 0 133 255
0.215021099844619 -0.428816770264626 -0.0585772272031977 0 0 0 0 133 255
0.161862390327586 -0.505679120385689 -0.015593474958518 0 0 0 0 133 255
0.122083230553178 -0.556858653539435 -0.0144567735738021 0 0 0 0 133 255
0.144574372940455 -0.525705294769743 -0.0251561971000308 0 0 0 0 133 255
0.150374733262117 -0.511934000405092 -0.0516465896141444 0 0 0 0 133 255
0.107659575532982 -0.577712316617442 4.40924298289042E-05 0 0 0 0 133 255
0.124440405276078 -0.543864282075842 -0.054643750301671 0 0 0 0 133 255
0.10979311270176 -0.565406858545518 -0.0448914450562133 0 0 0 0 133 255
0.0880376763650497 -0.610128697349611 0.0505326215741878 0 0 0 0 133 255
0.0565687780932982 -0.636826898390504 0.0266243024814497 0 0 0 0 133 255
0.0436766637381864 -0.652546732249464 0.047098315415173 0 0 0 0 133 255
0.0110505662620394 -0.668186833640531 0.0498891928819343 0 0 0 0 133 255
-0.0167788215384164 -0.696728011146538 0.116086958714558 0 0 0 0 133 255
-0.0370394981073984 -0.685395246190609 0.070817522188552 0 0 0 0 133 255
0.00643932059648177 -0.685883629343603 0.0990223560160738 0 0 0 0 133 255
-0.0650114537907469 -0.691610310695306 0.0824968222337264 0 0 0 0 133 255
-0.0529619753382666 -0.679602133979364 0.0360951344059595 0 0 0 0 133 255
-0.126308330059838 -0.693779703954503 0.109170942959945 0 0 0 0 133 255
-0.0843629536205423 -0.646286921046558 0.0359526076752841 0 0 0 0 133 255
-0.0939668105329807 -0.684730816121498 0.074510254391528 0 0 0 0 133 255
-0.159815118287968 -0.695169746898772 0.138749872942407 0 0 0 0 133 255
-0.210128271861262 -0.679030214026464 0.166443425695124 0 0 0 0 133 255
-0.187025590837127 -0.671807547449608 0.140861333092552 0 0 0 0 133 255
-0.156012783323919 -0.667973039512643 0.11214091363309 0 0 0 0 133 255
-0.161478955181177 -0.643244067846623 0.0957035646323132 0 0 0 0 133 255
-0.153441710721163 -0.623453216825168 0.0723747505662291 0 0 0 0 133 255
-0.246923927615009 -0.615092208363257 0.146408171583468 0 0 0 0 133 255
-0.272129882530368 -0.607635539016508 0.162385774440903 0 0 0 0 133 255
-0.232080072344743 -0.638322310154436 0.150368834151679 0 0 0 0 133 255
-0.273854688570759 -0.559095980066223 0.117158842161195 0 0 0 0 133 255
-0.218321847266822 -0.588304158503026 0.0985700583151475 0 0 0 0 133 255
-0.248793116102289 -0.571872504419003 0.108474534645413 0 0 0 0 133 255
-0.211122819054331 -0.617366826636643 0.114595324695894 0 0 0 0 133 255
-0.236611915419291 -0.547361983185546 0.0818477204646316 0 0 0 0 133 255
-0.160328812477805 -0.561643270577016 0.0351416614447822 0 0 0 0 133 255
-0.228784351870316 -0.51818250422804 0.0602125945496396 0 0 0 0 133 255
-0.219242516763501 -0.496175823442084 0.0449277213114165 0 0 0 0 133 255
-0.195837430668169 -0.53332289318269 0.0457193036571578 0 0 0 0 133 255
-0.319167611751076 -0.489928687810727 0.144341667912609 0 0 0 0 133 255
-0.290437248306662 -0.524229441010425 0.123605898956384 0 0 0 0 133 255
-0.289245018857078 -0.427941715674314 0.0877411807579947 0 0 0 0 133 255
-0.257622810533786 -0.512883403750382 0.0830770779346935 0 0 0 0 133 255
-0.31665561197023 -0.433566081490341 0.116056061085088 0 0 0 0 133 255
-0.297984194877073 -0.460013193760809 0.106041666356182 0 0 0 0 133 255
-0.269678054842596 -0.480844827582467 0.0849603609544721 0 0 0 0 133 255
-0.288431278537436 -0.386878230153694 0.0758445386579939 0 0 0 0 133 255
-0.262200974816523 -0.407411705907535 0.0573528049358338 0 0 0 0 133 255
-0.215798213708452 -0.417093874311993 0.0186463047678856 0 0 0 0 133 255
-0.337933248876469 -0.420010847003148 0.132604947165141 0 0 0 0 133 255
-0.333830918000311 -0.389326636402503 0.119258812002113 0 0 0 0 133 255
-0.312540443978248 -0.394169118301436 0.100031014732999 0 0 0 0 133 255
-0.343559383686474 -0.309871153525593 0.105220909792965 0 0 0 0 133 255
-0.347877949527104 -0.336510029888395 0.115401569679349 0 0 0 0 133 255
-0.32468006288852 -0.356538449264372 0.100052977471099 0 0 0 0 133 255
-0.290685268759787 -0.279299850424656 0.0551591208223575 0 0 0 0 133 255
-0.318447863741449 -0.247679696603719 0.0719469646375178 0 0 0 0 133 255
-0.258796456983895 -0.295292577741314 0.0324300665386158 0 0 0 0 133 255
-0.324285041419164 -0.277436828526262 0.0816486193486198 0 0 0 0 133 255
-0.380108392321265 -0.275864266466647 0.134936137711153 0 0 0 0 133 255
-0.398061800926564 -0.263441276283595 0.150984795703903 0 0 0 0 133 255
-0.356009622053591 -0.278870015812473 0.111134081964361 0 0 0 0 133 255
-0.349278249007474 -0.222739005741845 0.0999880776394452 0 0 0 0 133 255
-0.373464382232734 -0.214890776674278 0.121806575183801 0 0 0 0 133 255
-0.357695373204147 -0.194669011916859 0.106102758885522 0 0 0 0 133 255
-0.343820312588811 -0.165120445129375 0.0911715288523348 0 0 0 0 133 255
-0.329925258410022 -0.125330560420962 0.0776993648806308 0 0 0 0 133 255
-0.297101131789031 -0.17657082178722 0.0475245191184521 0 0 0 0 133 255
-0.32426777079708 -0.171358875900575 0.0729211620169726 0 0 0 0 133 255
-0.393096168039426 -0.150704253948608 0.151459209684124 0 0 0 0 133 255
-0.39608090640356 -0.180550801104749 0.150046151519735 0 0 0 0 133 255
-0.410042584848604 -0.148092693791312 0.174361400029077 0 0 0 0 133 255
-0.383107491566341 -0.116737064123083 0.144030446879597 0 0 0 0 133 255
-0.36623717693679 -0.152105695907605 0.115592814409792 0 0 0 0 133 255
-0.390601094686327 -0.0845636753496828 0.159738951512924 0 0 0 0 133 255
-0.37210821209459 -0.0867923783247552 0.135395602010585 0 0 0 0 133 255
-0.327710289976343 -0.0574031967288173 0.084724881795035 0 0 0 0 133 255
-0.353534809315326 -0.0490198771081853 0.118916423613024 0 0 0 0 133 255
-0.309768516031097 -0.0664106044436611 0.0604077660743318 0 0 0 0 133 255
-0.382678062185307 -0.059076376295184 0.154214755666937 0 0 0 0 133 255
-0.431353761571069 -0.0154775029952286 0.224584341031913 0 0 0 0 133 255
-0.407800634743886 -0.0554878631149981 0.18711629379036 0 0 0 0 133 255
-0.384396270699928 0.0530372717751867 0.177701746329419 0 0 0 0 133 255
-0.3906741017932 -0.00169810071127316 0.175152461340205 0 0 0 0 133 255
-0.372063370265035 -0.0231851170709292 0.147302694334847 0 0 0 0 133 255
-0.376207806795749 0.0203163045613706 0.160964895535885 0 0 0 0 133 255
-0.442734810908318 0.0434168221205176 0.266501715638575 0 0 0 0 133 255
-0.413966236332817 0.0209637737029662 0.209302615428337 0 0 0 0 133 255
-0.462301754443988 0.0530638949356894 0.302888900818304 0 0 0 0 133 255
-0.437710019162715 0.00550271009258146 0.241300335952247 0 0 0 0 133 255
-0.404787763069756 0.0824441760234025 0.220154724957979 0 0 0 0 133 255
-0.423085876759611 0.0729659596708502 0.246080090976066 0 0 0 0 133 255
-0.417443119108723 0.112019319325817 0.253140597256126 0 0 0 0 133 255
-0.427203534986853 -0.0454918319093878 0.214054953373349 0 0 0 0 133 255
-0.423566250041108 -0.107927919147866 0.199043950967788 0 0 0 0 133 255
-0.406027712385092 -0.102033900521535 0.176910712899344 0 0 0 0 133 255
-0.426710826466077 -0.0820966738419815 0.207413880090519 0 0 0 0 133 255
-0.471979110278642 0.00945277976346848 0.300956328711495 0 0 0 0 133 255
-0.456606759481186 -0.00935322578632047 0.266544616437134 0 0 0 0 133 255
-0.456629245750747 -0.0344379877620144 0.255269880571977 0 0 0 0 133 255
-0.489370646925173 0.014872932044998 0.332737354639242 0 0 0 0 133 255
-0.460106217807382 -0.0687268344745294 0.252623669640237 0 0 0 0 133 255
-0.449125694885258 -0.0995771747099873 0.233908831703529 0 0 0 0 133 255
-0.453285646791597 -0.145233663917038 0.234438459165835 0 0 0 0 133 255
-0.515330167432555 -0.0197131732581175 0.364665724541801 0 0 0 0 133 255
-0.508508135299059 -0.0381332396963543 0.344907628085524 0 0 0 0 133 255
-0.481468922462954 -0.0703119457883135 0.28329148185722 0 0 0 0 133 255
-0.484171268621702 -0.0417552905273314 0.299811399872901 0 0 0 0 133 255
-0.502076313612282 -0.0588535594571925 0.324908262342607 0 0 0 0 133 255
-0.472279607297016 -0.176812747965519 0.260122677762913 0 0 0 0 133 255
-0.486546835875829 -0.126352919826913 0.283415313472416 0 0 0 0 133 255
-0.465750488420508 -0.201159202515767 0.249430187795954 0 0 0 0 133 255
-0.513883072119665 -0.119623463674131 0.327180969193297 0 0 0 0 133 255
-0.521214703788314 -0.0732643460284652 0.357830787374563 0 0 0 0 133 255
-0.528943898562859 -0.100966718158661 0.363787625891662 0 0 0 0 133 255
-0.505602409043129 -0.0899989647880358 0.320780393990308 0 0 0 0 133 255
-0.540462635614301 -0.0661575773717119 0.398854256357206 0 0 0 0 133 255
-0.512396629816548 -0.158813960612166 0.320631437890003 0 0 0 0 133 255
-0.479593409912536 -0.215539581600012 0.269718778719591 0 0 0 0 133 255
-0.498146838092067 -0.221211272209471 0.305728884800275 0 0 0 0 133 255
-0.485731202027814 -0.27483147266023 0.292602031130479 0 0 0 0 133 255
-0.501050462808012 -0.188823502874797 0.305006508481313 0 0 0 0 133 255
-0.530727559983332 -0.132448257173169 0.361752730382029 0 0 0 0 133 255
-0.542683618554859 -0.125487105374822 0.392593293120122 0 0 0 0 133 255
-0.521716851760529 -0.177755282783363 0.341806621102655 0 0 0 0 133 255
-0.532778056896823 -0.172368542589884 0.370425609796239 0 0 0 0 133 255
-0.540278750256982 -0.192099890841331 0.397178269495936 0 0 0 0 133 255
-0.535691985064054 -0.228925156102156 0.391922689353423 0 0 0 0 133 255
-0.547366932039297 -0.164992565553376 0.412359072775472 0 0 0 0 133 255
-0.529008449627673 -0.262215135146952 0.379439597672219 0 0 0 0 133 255
-0.565399479825668 -0.124795280023359 0.442555127248311 0 0 0 0 133 255
-0.570594793380422 -0.116239719065109 0.474806017434772 0 0 0 0 133 255
-0.562940052547967 -0.0674904319176977 0.458764626072993 0 0 0 0 133 255
-0.565088047498122 -0.0314322855060984 0.483517634249896 0 0 0 0 133 255
-0.566437223772788 0.000218715643110504 0.502710686716497 0 0 0 0 133 255
-0.575065800782678 -0.186956349313992 0.485684358005781 0 0 0 0 133 255
-0.574550946271189 -0.16042297394188 0.470858437832571 0 0 0 0 133 255
-0.572800815540272 -0.226232886361933 0.468826883888413 0 0 0 0 133 255
-0.576822311803848 -0.147285205080975 0.495901475199037 0 0 0 0 133 255
-0.588082005464269 -0.194201310693777 0.519569163589388 0 0 0 0 133 255
-0.584095687079859 -0.148670698189883 0.527189485062996 0 0 0 0 133 255
-0.580711161101238 -0.0490387145443483 0.549632278913806 0 0 0 0 133 255
-0.581678608124129 -0.101734407624336 0.535217590022704 0 0 0 0 133 255
-0.593296863023766 -0.163230100100192 0.570311215809867 0 0 0 0 133 255
-0.590504938020399 -0.128082862281354 0.570966724425971 0 0 0 0 133 255
-0.586640499050422 -0.078982362576943 0.568317157912439 0 0 0 0 133 255
-0.579563536095724 -0.0641865978304558 0.595514476188394 0 0 0 0 133 255
-0.588844470964461 -0.151957247540685 0.626175293661896 0 0 0 0 133 255
-0.569649892880529 -0.129507838598334 0.649480072326329 0 0 0 0 133 255
-0.577111737752502 -0.110775905595679 0.625708037974789 0 0 0 0 133 255
-0.547074996809254 -0.040734014835995 0.6383449982072 0 0 0 0 133 255
-0.563032141740733 -0.063213011978864 0.623305919922427 0 0 0 0 133 255
-0.544571616418278 -0.134497291525566 0.696853161110942 0 0 0 0 133 255
-0.552998337508078 -0.102876906154038 0.665297206394692 0 0 0 0 133 255
-0.508352605006422 -0.0183313126037853 0.669263832934051 0 0 0 0 133 255
-0.536849504127044 -0.0623489104417198 0.662998484949661 0 0 0 0 133 255
-0.496475233360541 0.0183617729130835 0.65517340950173 0 0 0 0 133 255
-0.515757477155136 -0.0567465550412284 0.687143132681169 0 0 0 0 133 255
-0.477738493591686 -0.0115864304538686 0.680742078499358 0 0 0 0 133 255
-0.455943314496828 0.0310018571227759 0.663014115118672 0 0 0 0 133 255
-0.436086963903671 0.0726533475472274 0.639436177614385 0 0 0 0 133 255
-0.449129511351678 -0.0179248167688238 0.678144169193005 0 0 0 0 133 255
-0.423087936495569 0.0473924243886095 0.65029260452792 0 0 0 0 133 255
-0.402566861412191 0.119065904992573 0.607211568911287 0 0 0 0 133 255
-0.392071326613121 0.0336050455904343 0.647619635025834 0 0 0 0 133 255
-0.354470546396999 0.0839310703497172 0.619231652417597 0 0 0 0 133 255
-0.35561390447707 0.0579260467948693 0.63178754521458 0 0 0 0 133 255
-0.381219447253115 0.0734320209984769 0.630044772375208 0 0 0 0 133 255
-0.334886003211529 0.130649529690693 0.591672306155508 0 0 0 0 133 255
-0.308111207794236 0.129179691635559 0.586675438897967 0 0 0 0 133 255
-0.322330986465792 0.0727766370926922 0.617575769240958 0 0 0 0 133 255
-0.296151962580876 0.0955255171319232 0.599742585320572 0 0 0 0 133 255
-0.260593268827265 0.101841032479753 0.587257545305844 0 0 0 0 133 255
-0.2597160619512 0.159419360136125 0.55856522866555 0 0 0 0 133 255
-0.235069931961142 0.123512688213443 0.569297176023631 0 0 0 0 133 255
-0.229728618328081 0.0496722997818606 0.604268363102891 0 0 0 0 133 255
-0.212664352456946 0.0861604296650303 0.581319487100502 0 0 0 0 133 255
-0.16203516005456 0.106851198364977 0.5566757942476 0 0 0 0 133 255
-0.199811661156189 0.107474664612431 0.56727472288992 0 0 0 0 133 255
-0.166535559696315 0.154558240277408 0.533863265651747 0 0 0 0 133 255
-0.143901762221823 0.0479741527982242 0.573467483205708 0 0 0 0 133 255
-0.168925555308705 0.0752766030168653 0.572483222954172 0 0 0 0 133 255
-0.0904256089692307 0.104606977961501 0.529472364700761 0 0 0 0 133 255
-0.111663760183979 0.0839041680478095 0.546157702721915 0 0 0 0 133 255
-0.135084777325404 0.106864547485168 0.546311564883336 0 0 0 0 133 255
-0.0824454792500058 0.179890477201784 0.496810747838941 0 0 0 0 133 255
-0.0578452812311399 0.135167236786332 0.504467548063639 0 0 0 0 133 255
-0.0602401887523478 0.086648914791116 0.520444020363792 0 0 0 0 133 255
-0.00261041443340829 0.0915617865668545 0.484260872803031 0 0 0 0 133 255
0.0392954998755532 0.140074309282582 0.44764730252316 0 0 0 0 133 255
0.00888224240309151 0.166300981534378 0.460246960723994 0 0 0 0 133 255
0.00215324523415175 0.051506211768899 0.490060122303316 0 0 0 0 133 255
0.0229280077622271 0.0600337406987721 0.474998682403576 0 0 0 0 133 255
0.0264295069201779 0.0292632325827566 0.479026862587997 0 0 0 0 133 255
0.0771410714183628 0.0523374136291704 0.44070244262843 0 0 0 0 133 255
0.0313854170119888 0.0891830551050381 0.463474919318909 0 0 0 0 133 255
0.0702689030542444 0.0874025870208156 0.437774195841136 0 0 0 0 133 255
0.103698068257593 0.119452213299222 0.409171289072797 0 0 0 0 133 255
0.0958036818573207 0.150400850256707 0.408730774315054 0 0 0 0 133 255
0.109179610593071 0.0456839367477252 0.418902586405474 0 0 0 0 133 255
0.117228264588937 0.0746665978435847 0.407828349205082 0 0 0 0 133 255
0.140538768450291 0.0579577996270381 0.393663129215544 0 0 0 0 133 255
0.159896195651892 0.0783747866838989 0.375775268404419 0 0 0 0 133 255
0.165945968693622 0.0512813135381114 0.376163531858535 0 0 0 0 133 255
0.188086657220107 0.0948142288614684 0.352079607038169 0 0 0 0 133 255
0.204183060207389 0.12507239400462 0.334829224213787 0 0 0 0 133 255
0.175503113478054 0.149376356466321 0.351480298928935 0 0 0 0 133 255
0.180413794793135 0.0307005513822521 0.364679208250354 0 0 0 0 133 255
0.235653385809904 0.0636349636774477 0.313124389809407 0 0 0 0 133 255
0.219094192776969 0.0316847104054853 0.329967514802069 0 0 0 0 133 255
0.214118358317883 0.067570135095992 0.33217343500387 0 0 0 0 133 255
0.248067634436144 0.141673874612886 0.296848662762406 0 0 0 0 133 255
0.250963252929721 0.11298322132374 0.296148989224043 0 0 0 0 133 255
0.257595093323625 0.0839298640085187 0.292098555059839 0 0 0 0 133 255
0.251276903892954 0.011486200615494 0.289480657143263 0 0 0 0 133 255
0.263118536694639 0.0580520229968674 0.284018698027548 0 0 0 0 133 255
0.275366155703035 0.02812878773278 0.262078822074406 0 0 0 0 133 255
0.280571842467426 0.0606072760201439 0.261897946078199 0 0 0 0 133 255
0.312690795611851 0.0986468831402426 0.226834820868962 0 0 0 0 133 255
0.318757802603716 0.126739493508512 0.223655562585829 0 0 0 0 133 255
0.330744778035916 0.0938152618973764 0.201723966910936 0 0 0 0 133 255
0.311689361707583 0.0520575772698498 0.219607279921107 0 0 0 0 133 255
0.308556395552863 0.0204443374664553 0.21593591317169 0 0 0 0 133 255
0.353914489830756 0.0424176805949774 0.158187562954447 0 0 0 0 133 255
0.327477519356107 0.0489029177856283 0.196799180255128 0 0 0 0 133 255
0.336067649897695 0.0269071119826659 0.179558950014701 0 0 0 0 133 255
0.366582538313904 0.0677367476992311 0.145026096800969 0 0 0 0 133 255
0.368274167330187 0.124811618975139 0.151307300135342 0 0 0 0 133 255
0.363640934854759 0.00121282822374801 0.134781628391755 0 0 0 0 133 255
0.355774921023819 -0.0262012751710088 0.139332549277175 0 0 0 0 133 255
0.400156550745224 0.0266388022850213 0.0906787687290494 0 0 0 0 133 255
0.380276727843774 0.0451246408008076 0.122043129415344 0 0 0 0 133 255
0.36699757563284 -0.0526465103151563 0.113690709985967 0 0 0 0 133 255
0.377340409081135 -0.0784571891071715 0.0826801283577542 0 0 0 0 133 255
0.382587114379171 -0.0382365367140076 0.0938703681526003 0 0 0 0 133 255
0.41951990705107 -0.0175903238275971 0.0442699786930152 0 0 0 0 133 255
0.403787078293949 -0.0234446179429918 0.0673561744947335 0 0 0 0 133 255
0.397954082584961 -0.000936609106067077 0.0868212747555416 0 0 0 0 133 255
0.393940202675862 -0.083021562660491 0.0394125921141033 0 0 0 0 133 255
0.379375747092745 -0.0996671195502484 0.0592894606843993 0 0 0 0 133 255
0.407182799013322 -0.0859642249975707 -0.00426213429804312 0 0 0 0 133 255
0.422588505649443 -0.0551775528552278 -0.00724039353774023 0 0 0 0 133 255
0.369718619658957 -0.1620620152079 -0.0283713063894693 0 0 0 0 133 255
0.390950062147388 -0.12079502677071 -0.0184664768864437 0 0 0 0 133 255
0.414657351746639 -0.0831837931907844 -0.0313888792254739 0 0 0 0 133 255
0.404601744065446 -0.11226662244457 -0.0612497047646658 0 0 0 0 133 255
0.425078694232582 -0.0793577127040987 -0.0721664455266236 0 0 0 0 133 255
0.373445523073133 -0.134765123464444 0.0230976249297462 0 0 0 0 133 255
0.368320451732533 -0.126727472658596 0.0515235302989303 0 0 0 0 133 255
0.337781856765151 -0.201894952884445 0.013815191706168 0 0 0 0 133 255
0.353441030890156 -0.173545941414182 0.0159504216918989 0 0 0 0 133 255
0.335379456051833 -0.183199338587709 0.0636439273482348 0 0 0 0 133 255
0.336938915861891 -0.159187128574512 0.098105954864401 0 0 0 0 133 255
0.326992786727484 -0.184266664065067 0.0894675651457769 0 0 0 0 133 255
0.322398591154369 -0.209820945269867 0.0604191456223943 0 0 0 0 133 255
0.304222361936053 -0.25592543398777 0.0314586058253726 0 0 0 0 133 255
0.316673797724176 -0.231289351646297 0.0360667183081596 0 0 0 0 133 255
0.309074479468043 -0.211647903699133 0.10162997030814 0 0 0 0 133 255
0.295359841749528 -0.226873731343785 0.122568369598811 0 0 0 0 133 255
0.307956259052685 -0.199120107066725 0.127413650440562 0 0 0 0 133 255
0.276898190739384 -0.292060798523561 0.0652738242021683 0 0 0 0 133 255
0.302785394790028 -0.238425532183436 0.075885438865351 0 0 0 0 133 255
0.280092290474462 -0.271311577026994 0.0947203616656117 0 0 0 0 133 255
0.273060557172171 -0.251601725083945 0.155702710999975 0 0 0 0 133 255
0.256198265464831 -0.278117333058941 0.16644429887507 0 0 0 0 133 255
0.265653220569765 -0.276393638407841 0.136283157211101 0 0 0 0 133 255
0.258516189845896 -0.3136522391417 0.0925178594571028 0 0 0 0 133 255
0.25182458423158 -0.311119589779586 0.12095444871536 0 0 0 0 133 255
0.237030274856078 -0.356657736492682 0.0887655569917589 0 0 0 0 133 255
0.217903563761716 -0.360756748262672 0.149871675718082 0 0 0 0 133 255
0.235328262916987 -0.346337231811866 0.114156274753836 0 0 0 0 133 255
0.221468170454039 -0.386775505196576 0.0906363253341214 0 0 0 0 133 255
0.21257631346646 -0.416491059669676 0.0700081060688191 0 0 0 0 133 255
0.241041732476602 -0.3650273949181 0.0592743462541901 0 0 0 0 133 255
0.18327175518116 -0.448899549426028 0.116412585169914 0 0 0 0 133 255
0.188267329835264 -0.461087971837246 0.0767986240988301 0 0 0 0 133 255
0.171958888346276 -0.491761160660835 0.070356169277374 0 0 0 0 133 255
0.19874867664701 -0.452321800589645 0.0469961726542878 0 0 0 0 133 255
0.156875619170405 -0.511109237316817 0.0892902432099573 0 0 0 0 133 255
0.137828565687206 -0.546184637841389 0.0766494026601118 0 0 0 0 133 255
0.154095783677677 -0.524261185914177 0.0597311395121014 0 0 0 0 133 255
0.1676788523812 -0.502963529930206 0.0171786370392097 0 0 0 0 133 255
0.102942780815506 -0.589840020042123 0.126328932351273 0 0 0 0 133 255
0.0874919592607921 -0.614108772372001 0.0850548210369264 0 0 0 0 133 255
0.106004367290502 -0.590804451174456 0.076379755505256 0 0 0 0 133 255
0.109875786696717 -0.582366642999695 0.0415561049314646 0 0 0 0 133 255
0.0821838934347001 -0.613295541502048 0.149965866201273 0 0 0 0 133 255
0.0650160557044177 -0.640047021608191 0.115566241406979 0 0 0 0 133 255
0.030659127174794 -0.678345418011633 0.159230045773906 0 0 0 0 133 255
0.0546679969119965 -0.656708534707871 0.147856837343272 0 0 0 0 133 255
-0.00330068246007732 -0.696807189344586 0.14589614283594 0 0 0 0 133 255
0.0189324968833051 -0.680020211490925 0.128803530350625 0 0 0 0 133 255
-0.0286577643398413 -0.706773682157896 0.139126054118988 0 0 0 0 133 255
0.038785901272981 -0.664714917449793 0.090436087185743 0 0 0 0 133 255
0.000376087821767894 -0.703627979987317 0.178617857526432 0 0 0 0 133 255
-0.0280170235701029 -0.71254134070262 0.172319488252288 0 0 0 0 133 255
-0.0662227492405332 -0.73527062126382 0.202842905797176 0 0 0 0 133 255
-0.0893130694967657 -0.746222112166286 0.225805949031222 0 0 0 0 133 255
-0.107543355558051 -0.738574721472445 0.206465615828771 0 0 0 0 133 255
-0.150451922679773 -0.733003186540374 0.194749389398748 0 0 0 0 133 255
-0.0796056214096469 -0.722293523192727 0.164304071313588 0 0 0 0 133 255
-0.107809363122737 -0.71584390465711 0.149473821631858 0 0 0 0 133 255
-0.0808254055389559 -0.70319654442317 0.116272329113017 0 0 0 0 133 255
-0.164620651298047 -0.749317833417788 0.237463711470503 0 0 0 0 133 255
-0.189440316006184 -0.733051373836095 0.206160570631497 0 0 0 0 133 255
-0.171796359750352 -0.723416584538376 0.179780582174687 0 0 0 0 133 255
-0.150242375827696 -0.718411549962472 0.157106035077959 0 0 0 0 133 255
-0.284226971884724 -0.745302954934083 0.276682008118631 0 0 0 0 133 255
-0.258889135500068 -0.736138525557295 0.252021256287117 0 0 0 0 133 255
-0.218118215814932 -0.699977944736538 0.190830402182905 0 0 0 0 133 255
-0.232205240153038 -0.724065189783414 0.223703342004179 0 0 0 0 133 255
-0.338411129560095 -0.694449736238525 0.27568213523443 0 0 0 0 133 255
-0.272351972208141 -0.705410068506958 0.235006456272288 0 0 0 0 133 255
-0.295576264706404 -0.708792961554344 0.253697135152941 0 0 0 0 133 255
-0.268370465201585 -0.682128080149553 0.212243769778202 0 0 0 0 133 255
-0.248472883677163 -0.656592566220485 0.176675764701946 0 0 0 0 133 255
-0.371355900792514 -0.649197876550672 0.297945170020506 0 0 0 0 133 255
-0.334781258777482 -0.664002139882648 0.258593898753795 0 0 0 0 133 255
-0.356748141067276 -0.674536280322799 0.284311201649361 0 0 0 0 133 255
-0.318627889245456 -0.624541613370434 0.216812477026817 0 0 0 0 133 255
-0.30643549460194 -0.612914450865728 0.192382718599044 0 0 0 0 133 255
-0.328181479485629 -0.596384575640849 0.209537437092062 0 0 0 0 133 255
-0.301703590340603 -0.657898045335848 0.21798709099755 0 0 0 0 133 255
-0.391384728179321 -0.600377310478508 0.302846100514742 0 0 0 0 133 255
-0.409519379796382 -0.601985523374107 0.330053469379547 0 0 0 0 133 255
-0.354803453678506 -0.608423191218494 0.253946874262993 0 0 0 0 133 255
-0.38049855074464 -0.558030025912923 0.263014583359891 0 0 0 0 133 255
-0.363892547505651 -0.557629480958978 0.238815037585726 0 0 0 0 133 255
-0.332157235136693 -0.522696470834953 0.17590660170416 0 0 0 0 133 255
-0.353518464889492 -0.495166795919502 0.190316058323123 0 0 0 0 133 255
-0.367490546785748 -0.511440221613819 0.218510584748527 0 0 0 0 133 255
-0.407567420802948 -0.5097114069061 0.272060713047415 0 0 0 0 133 255
-0.384160882988506 -0.520441022129032 0.246729211161598 0 0 0 0 133 255
-0.414653926643172 -0.449936529009854 0.243870426812226 0 0 0 0 133 255
-0.385434578664207 -0.492174534937903 0.230735835663171 0 0 0 0 133 255
-0.388848142157631 -0.459002776860143 0.214796015867251 0 0 0 0 133 255
-0.38037000574039 -0.409585615646291 0.177280500522734 0 0 0 0 133 255
-0.401927431808298 -0.413049929109074 0.204386661811108 0 0 0 0 133 255
-0.353692648954998 -0.427989991826517 0.154972560641849 0 0 0 0 133 255
-0.385243461835815 -0.374249138974629 0.165523220238475 0 0 0 0 133 255
-0.456388662516556 -0.414482440242931 0.283457291104381 0 0 0 0 133 255
-0.436457356020711 -0.420527620588953 0.258053470728957 0 0 0 0 133 255
-0.418121126562308 -0.368166231511746 0.20576415649332 0 0 0 0 133 255
-0.382900069773116 -0.31463428322954 0.145422813833473 0 0 0 0 133 255
-0.413674124864475 -0.294423284361327 0.17460498982511 0 0 0 0 133 255
-0.469879624597295 -0.31179877140409 0.269685132949587 0 0 0 0 133 255
-0.44312620128387 -0.325413167124804 0.220022811144611 0 0 0 0 133 255
-0.456343903034005 -0.327129559698013 0.246565953419958 0 0 0 0 133 255
-0.447441699096057 -0.233772706865474 0.220616535119374 0 0 0 0 133 255
-0.450295695990741 -0.274377313266907 0.224081083194928 0 0 0 0 133 255
-0.438452791981799 -0.298364811648326 0.205434331393415 0 0 0 0 133 255
-0.455893097208537 -0.363304512471638 0.255966839615924 0 0 0 0 133 255
-0.475957368444045 -0.351116790816859 0.294198529434419 0 0 0 0 133 255
-0.47833904605292 -0.450804886253381 0.338303599791046 0 0 0 0 133 255
-0.484843643975934 -0.40088694749114 0.332607257964181 0 0 0 0 133 255
-0.471227397480822 -0.398980163085539 0.301776884386345 0 0 0 0 133 255
-0.487742354119061 -0.359669579854315 0.322445350231946 0 0 0 0 133 255
-0.50811748512721 -0.362730159076304 0.367068480618283 0 0 0 0 133 255
-0.521289963364468 -0.350989936002103 0.391498493323046 0 0 0 0 133 255
-0.514910224460006 -0.26187484927474 0.34913941725659 0 0 0 0 133 255
-0.505617297786933 -0.303531246081027 0.342088049860374 0 0 0 0 133 255
-0.522244684501352 -0.221746286043611 0.352638008663585 0 0 0 0 133 255
-0.514283698664404 -0.387809033440033 0.389378679695822 0 0 0 0 133 255
-0.516113110167348 -0.450738030628916 0.417102652123297 0 0 0 0 133 255
-0.52154349153011 -0.409679042490276 0.41376663311716 0 0 0 0 133 255
-0.561363495920229 -0.343443866864966 0.46907236291734 0 0 0 0 133 255
-0.535224170631562 -0.362818713994823 0.425977505045708 0 0 0 0 133 255
-0.538232675144852 -0.386604066486943 0.440907553237566 0 0 0 0 133 255
-0.551899243336923 -0.285175454453382 0.430049411086157 0 0 0 0 133 255
-0.538034726165785 -0.317364390139943 0.415421108750964 0 0 0 0 133 255
-0.561828119741192 -0.251205483919231 0.438152612867495 0 0 0 0 133 255
-0.570498443184958 -0.188484731616268 0.438045162418584 0 0 0 0 133 255
-0.562237616806949 -0.218336332718059 0.431648510404915 0 0 0 0 133 255
-0.556846769258442 -0.406631992425839 0.485147535443589 0 0 0 0 133 255
-0.542795306361194 -0.412147045636511 0.459725951600984 0 0 0 0 133 255
-0.548277131657441 -0.466371897137883 0.492145214217884 0 0 0 0 133 255
-0.555676737338231 -0.374954502068566 0.470203925826713 0 0 0 0 133 255
-0.578066046492618 -0.394260853628178 0.518113277984332 0 0 0 0 133 255
-0.570380835190357 -0.359103539880876 0.492346340048212 0 0 0 0 133 255
-0.587198451640173 -0.231456665589784 0.51021003580473 0 0 0 0 133 255
-0.580049012374596 -0.270003261822109 0.500359652933806 0 0 0 0 133 255
-0.595057247615715 -0.291247457582622 0.514159356994389 0 0 0 0 133 255
-0.576286113052259 -0.311318929427378 0.493759422555945 0 0 0 0 133 255
-0.61197232242962 -0.343846434035323 0.561384272723402 0 0 0 0 133 255
-0.61472568824972 -0.308972792470559 0.562519657570124 0 0 0 0 133 255
-0.602050297534078 -0.265670499783696 0.534522044078288 0 0 0 0 133 255
-0.594859912286432 -0.192131403648076 0.558893492213133 0 0 0 0 133 255
-0.599234578359459 -0.235473991030499 0.545452308067896 0 0 0 0 133 255
-0.607212028327179 -0.25634742043822 0.575627972080401 0 0 0 0 133 255
-0.614982929786357 -0.282836822636926 0.593981068189809 0 0 0 0 133 255
-0.600950328308095 -0.198635917004769 0.589441132951935 0 0 0 0 133 255
-0.602375540436164 -0.223901200194457 0.57549297319874 0 0 0 0 133 255
-0.614636112930043 -0.260857016254093 0.623530613776944 0 0 0 0 133 255
-0.611351624007317 -0.274917291602055 0.655431978591862 0 0 0 0 133 255
-0.60511672695807 -0.218377701629836 0.631726036188104 0 0 0 0 133 255
-0.566473396605769 -0.157592378516383 0.670043613127409 0 0 0 0 133 255
-0.584343349028541 -0.208280608368773 0.662805294199685 0 0 0 0 133 255
-0.566990667008833 -0.266026355872029 0.714602326710174 0 0 0 0 133 255
-0.58621354929684 -0.266688661808822 0.683566852888662 0 0 0 0 133 255
-0.566221176240054 -0.206789401176477 0.693682714082057 0 0 0 0 133 255
-0.547171628809955 -0.17399115528632 0.711399549997839 0 0 0 0 133 255
-0.549612706219922 -0.244250425764165 0.735791087945805 0 0 0 0 133 255
-0.550130600964306 -0.213006262696889 0.723882760460392 0 0 0 0 133 255
-0.528855052367225 -0.197984546471497 0.756160280427779 0 0 0 0 133 255
-0.511291250593577 -0.0993213671453842 0.717102884953154 0 0 0 0 133 255
-0.512786457699874 -0.168573997520983 0.739266105078863 0 0 0 0 133 255
-0.464871562652624 -0.0508954935003309 0.691579127797813 0 0 0 0 133 255
-0.464014082765396 -0.144817954279784 0.709293744158564 0 0 0 0 133 255
-0.488765680529633 -0.14400817755069 0.721960264347954 0 0 0 0 133 255
-0.468514502215882 -0.116650637166254 0.706854658961025 0 0 0 0 133 255
-0.459624645068725 -0.0882339286014504 0.698494749497546 0 0 0 0 133 255
-0.414746849146014 -0.0001853658900524 0.664190762794649 0 0 0 0 133 255
-0.412132781489453 -0.0767908015361023 0.683007994784765 0 0 0 0 133 255
-0.368546366380873 -0.0668411517365419 0.676890060382841 0 0 0 0 133 255
-0.369797553360767 -0.0347226113900347 0.667245418215917 0 0 0 0 133 255
-0.343610988185943 0.0265561864784265 0.642410226251843 0 0 0 0 133 255
-0.32033952167035 0.00722534595911091 0.646110210871453 0 0 0 0 133 255
-0.325719978324771 -0.0930727451678091 0.680746941326869 0 0 0 0 133 255
-0.335181378982561 -0.0400524404499736 0.66545018442402 0 0 0 0 133 255
-0.288130292021797 -0.045474701427344 0.660730496932318 0 0 0 0 133 255
-0.316241293936517 -0.021567264796102 0.655674177605837 0 0 0 0 133 255
-0.242330320803445 -0.00433986162020038 0.633031186406323 0 0 0 0 133 255
-0.265977377252439 0.0478742871454953 0.615388692447065 0 0 0 0 133 255
-0.228367305366156 0.0149801836076447 0.62032494108221 0 0 0 0 133 255
-0.241410231974392 -0.0391792657000651 0.644230974901492 0 0 0 0 133 255
-0.268742981566979 -0.0654499076145595 0.663084459989808 0 0 0 0 133 255
-0.181812985311961 -0.0261554835160954 0.616791563540291 0 0 0 0 133 255
-0.208118009547516 -0.0417483488567384 0.632480541257372 0 0 0 0 133 255
-0.16536164223545 0.00751378508007274 0.597546245788139 0 0 0 0 133 255
-0.129947316626186 0.0219626864920228 0.578284262951547 0 0 0 0 133 255
-0.170725754410493 0.0333895139156034 0.589647084751571 0 0 0 0 133 255
-0.152643041090306 -0.06793220815372 0.610085650174613 0 0 0 0 133 255
-0.184490203676187 -0.0613533124460105 0.628447182650126 0 0 0 0 133 255
-0.131887607921434 -0.023841082853185 0.589574734337129 0 0 0 0 133 255
-0.108526647191457 -0.0557096665043927 0.58152722975821 0 0 0 0 133 255
-0.0790078032799708 0.00162931030905848 0.551094572365329 0 0 0 0 133 255
-0.0550034270980744 0.0219629539215422 0.531947144909394 0 0 0 0 133 255
-0.0860327919691282 0.0454777014325881 0.545696054728497 0 0 0 0 133 255
-0.0795133440620235 -0.0588671609238168 0.564028147723175 0 0 0 0 133 255
-0.0644246847049066 -0.0852831486175934 0.55962220672656 0 0 0 0 133 255
-0.00752996171672875 -0.0410349328134646 0.51529130911015 0 0 0 0 133 255
-0.0579312443809215 -0.0457159278175345 0.54800813362427 0 0 0 0 133 255
-0.0227163943911668 -0.069147979397604 0.530483756399828 0 0 0 0 133 255
0.0356878549115951 0.00188222856661212 0.47870056498572 0 0 0 0 133 255
0.000357579616146388 0.0120958156867736 0.499391268172497 0 0 0 0 133 255
0.015972072010477 -0.124801451385687 0.516646742383307 0 0 0 0 133 255
0.0123105429905939 -0.0876589997593216 0.511788641515028 0 0 0 0 133 255
0.0242439743263707 -0.0525800975530051 0.496716991000362 0 0 0 0 133 255
0.0446315864975008 -0.0773641132436967 0.487753192924031 0 0 0 0 133 255
0.0532867072514079 -0.0535617373078304 0.476665279756921 0 0 0 0 133 255
0.0755626465284643 -0.0501589942493133 0.460403793827746 0 0 0 0 133 255
0.0944181523100672 -0.0336257252542338 0.444088615268058 0 0 0 0 133 255
0.118932562094596 -0.0081404169273782 0.421413116050572 0 0 0 0 133 255
0.0823589895410384 0.00806864810291373 0.445149309958958 0 0 0 0 133 255
0.0964514670282396 -0.12379528586367 0.450373213594 0 0 0 0 133 255
0.0652165423135383 -0.091256426203421 0.475651172966356 0 0 0 0 133 255
0.0919961405044345 -0.0708660021062847 0.450437820281179 0 0 0 0 133 255
0.124538761731212 -0.0613035637544251 0.420616688729752 0 0 0 0 133 255
0.152522138279764 -0.0688273838182853 0.396137034809602 0 0 0 0 133 255
0.133675341651867 -0.0976545763066429 0.415084246518344 0 0 0 0 133 255
0.16063344378926 -0.00810303974315051 0.384855333890173 0 0 0 0 133 255
0.163902335520718 -0.037521527336854 0.383862712923421 0 0 0 0 133 255
0.189129626088987 -0.0281878625114554 0.360654807436615 0 0 0 0 133 255
0.161211347476389 -0.142319549189767 0.372475055940415 0 0 0 0 133 255
0.160556543099893 -0.113652509775453 0.379322266549361 0 0 0 0 133 255
0.175761755261989 -0.0687664693391396 0.369299090433699 0 0 0 0 133 255
0.207505492728311 -0.0807228138919871 0.326297461959173 0 0 0 0 133 255
0.185324044557537 -0.0927121542536761 0.352129387473083 0 0 0 0 133 255
0.231560469783576 -0.00608394011322265 0.311050296498341 0 0 0 0 133 255
0.232802119671125 -0.0545998979858307 0.299367946217895 0 0 0 0 133 255
0.244245567086648 -0.0300555393406893 0.289790508995392 0 0 0 0 133 255
0.202985415686327 -0.109518946643679 0.325401709595959 0 0 0 0 133 255
0.219470820551464 -0.119943868198544 0.299017283035262 0 0 0 0 133 255
0.240753874461017 -0.0896132513319994 0.279309074274799 0 0 0 0 133 255
0.271911442875534 -0.0846971754546079 0.238384030709083 0 0 0 0 133 255
0.287699114608173 -0.00143649082957231 0.238968608362284 0 0 0 0 133 255
0.295949044320934 -0.0480167066516262 0.215578361009939 0 0 0 0 133 255
0.272801632187375 -0.124119470091712 0.223318657802109 0 0 0 0 133 255
0.251008997769955 -0.13210462349785 0.252509053672122 0 0 0 0 133 255
0.264510465754849 -0.153931587137766 0.224635439760269 0 0 0 0 133 255
0.2921250983332 -0.107100484541005 0.202351009224005 0 0 0 0 133 255
0.350732001051237 -0.0584872656516376 0.137048403904886 0 0 0 0 133 255
0.336551361018906 -0.0829069841670491 0.14875484474779 0 0 0 0 133 255
0.339251147441659 -0.0155425462206238 0.164220818720596 0 0 0 0 133 255
0.316110240793022 -0.170921802340805 0.133465394431485 0 0 0 0 133 255
0.325183786824994 -0.11997833445164 0.14727200143057 0 0 0 0 133 255
0.308663786473374 -0.125681252094683 0.172340880888497 0 0 0 0 133 255
0.344426707632783 -0.121947732681754 0.113609053890285 0 0 0 0 133 255
0.362334422702566 -0.0970426909564035 0.0981684579291058 0 0 0 0 133 255
0.289211736713614 -0.15730384409125 0.187412569888817 0 0 0 0 133 255
0.277757062992903 -0.21886854517061 0.171785390022449 0 0 0 0 133 255
0.270167030021957 -0.179865460452912 0.206847654104067 0 0 0 0 133 255
0.28598330405126 -0.190151261704615 0.174188580989389 0 0 0 0 133 255
0.245072773769796 -0.173534356540226 0.245577209707675 0 0 0 0 133 255
0.227863611628243 -0.160570872642057 0.275345529223074 0 0 0 0 133 255
0.250903973563168 -0.256628090450564 0.195962488310663 0 0 0 0 133 255
0.240865159945002 -0.222061312753321 0.23252556834454 0 0 0 0 133 255
0.200370632756095 -0.194080391817044 0.302365084922716 0 0 0 0 133 255
0.22619523345712 -0.211332203558911 0.258151926557446 0 0 0 0 133 255
0.209271013133755 -0.219091141901419 0.279736684097402 0 0 0 0 133 255
0.227679580181953 -0.245061320070084 0.241863398037574 0 0 0 0 133 255
0.224904748178642 -0.276535113682685 0.228810077643032 0 0 0 0 133 255
0.181948566130845 -0.316753072955194 0.278710314847398 0 0 0 0 133 255
0.207018654101181 -0.304470256656187 0.243317374834155 0 0 0 0 133 255
0.190735301030737 -0.387821243447019 0.196486186774126 0 0 0 0 133 255
0.20436089083718 -0.350654932559699 0.214754097998033 0 0 0 0 133 255
0.215480822540454 -0.347090024823643 0.18275274660872 0 0 0 0 133 255
0.235466029532143 -0.328158368035532 0.147070631985906 0 0 0 0 133 255
0.16719299248914 -0.4078482521711 0.239563812563849 0 0 0 0 133 255
0.17653055017308 -0.40745471158256 0.209783844249368 0 0 0 0 133 255
0.169855609851215 -0.430675726971892 0.193713063106852 0 0 0 0 133 255
0.151610924505993 -0.476564232827605 0.177697167646327 0 0 0 0 133 255
0.154441517675011 -0.454674337143931 0.205716574502533 0 0 0 0 133 255
