ply
format ascii 1.0
comment File exported by Rhinoceros Version 7.0
element vertex 502
property float x
property float y
property float z
property float nx
property float ny
property float nz
property uchar red
property uchar green
property uchar blue
end_header
-0.203522146168606 0.175566722481604 0.435682800403892 2.684896E-14 1 8.611068E-14 22 255 211
-0.185569663936667 0.191409414395873 0.437174647444398 1.162339E-13 1 1.989589E-13 22 255 211
-0.173439430282512 0.159164830774625 0.468552381653749 1.250835E-13 1 -8.620584E-15 22 255 211
-0.198193836661624 0.137400358398073 0.466438179045238 5.238705E-15 1 4.300059E-14 22 255 211
-0.179969003906784 0.110563335531359 0.498301722728089 4.045777E-14 1 7.714622E-14 22 255 211
-0.225672172165478 0.192416300669769 0.408105915821061 4.131981E-14 1 -3.666178E-14 22 255 211
-0.227935279776842 0.167125117103533 0.42438922448643 -4.383364E-14 1 -3.901643E-14 22 255 211
-0.221600094553992 0.22030079730933 0.391267992849853 -1.221213E-13 1 -1.694016E-13 22 255 211
-0.273715751499063 0.153721338172735 0.401495445461221 -3.969243E-14 1 4.400197E-14 22 255 211
-0.256003676592983 0.169339171756816 0.402976297701448 1.505106E-14 1 1.616234E-13 22 255 211
-0.243703595164698 0.125381036517346 0.442756864204679 4.46972E-14 1 9.360516E-14 22 255 211
-0.237460110685166 0.148229391151562 0.43101544791758 -8.988701E-14 1 3.570924E-14 22 255 211
-0.274031948691309 0.18436328618234 0.379604731056034 -5.561277E-16 1 4.104351E-14 22 255 211
-0.28409549120168 0.165063684218955 0.386135611326703 3.352559E-14 1 1.332092E-13 22 255 211
-0.290600629060803 0.197132423741843 0.358859761053224 1.613034E-13 1 -4.614424E-15 22 255 211
-0.347554593961317 0.14345406255173 0.356543559457119 3.771954E-14 1 9.280987E-14 22 255 211
-0.321485040175374 0.162075893533799 0.361809894756137 1.269929E-13 1 2.283802E-13 22 255 211
-0.329602034424405 0.118367147548307 0.386977063763296 0 1 0 22 255 211
-0.305192950624899 0.140215634472904 0.388787679177429 9.331531E-14 1 -6.364341E-14 22 255 211
-0.310292901955814 0.104564641925205 0.410390527594127 0 1 0 22 255 211
-0.358850541878733 0.166070606351064 0.332563806597274 2.947901E-14 1 8.596921E-14 22 255 211
-0.33836008326193 0.182228783980267 0.335627191861611 7.113465E-15 1 -4.201674E-14 22 255 211
-0.412105727924007 0.138792104521072 0.314195517035906 1.218382E-13 1 4.016844E-15 22 255 211
-0.389761219578037 0.159153792221483 0.315597582960257 1.121829E-13 1 4.713805E-14 22 255 211
-0.382321850834893 0.145556322018323 0.330472874433918 1.199967E-13 1 4.299722E-14 22 255 211
-0.378788195730759 0.0758850032882725 0.382236607848654 4.468626E-14 1 -4.749649E-14 22 255 211
-0.379755948153901 0.120176342257338 0.350233597414882 2.504566E-14 1 4.869439E-14 22 255 211
-0.386363200361434 0.0944279802380001 0.363768405962246 7.063955E-15 1 1.125658E-13 22 255 211
-0.424609769221846 0.180576560507313 0.275807752465906 2.000741E-14 1 -8.70448E-16 22 255 211
-0.418047685977444 0.160131202163523 0.294904897555416 2.488807E-14 1 1.213322E-13 22 255 211
-0.467685859842834 0.12107672597696 0.287421093156688 -3.91608E-14 1 2.353936E-15 22 255 211
-0.474218192704414 0.14071565209648 0.268915218458963 2.97769E-14 1 -5.555442E-14 22 255 211
-0.441338934710514 0.124907238445667 0.303342601239124 6.766608E-14 1 -4.362644E-14 22 255 211
-0.447583323260518 0.0928970123808988 0.321561799668765 2.619179E-14 1 -4.40045E-14 22 255 211
-0.44640246866788 0.0691577116012227 0.33918301052075 1.480013E-14 1 4.330622E-14 22 255 211
-0.512299389356279 0.103153050258581 0.26854851654932 0 1 0 22 255 211
-0.538274755940853 0.0760781149901876 0.269326029022029 -3.335624E-14 1 -9.820274E-14 22 255 211
-0.510412829650013 0.0850290370684607 0.282698128339782 -8.212212E-14 1 -4.911878E-14 22 255 211
-0.484117061341167 0.0878513980946647 0.299296333806892 2.600045E-14 1 1.416084E-13 22 255 211
-0.491205632813792 0.0628494142866168 0.311963029143461 -2.313154E-14 1 9.383016E-16 22 255 211
-0.48767864814915 0.0389501920412515 0.331356286031752 -3.509383E-15 1 3.551271E-14 22 255 211
-0.510389882147127 0.0473066324346444 0.309388122793918 -5.921462E-14 1 -4.098657E-14 22 255 211
-0.527384376519654 0.0536229822014409 0.29290486682782 -6.338444E-15 1 -4.342408E-14 22 255 211
-0.558025741281999 0.0395055499595015 0.281220682090773 -3.690955E-14 1 -9.3924E-14 22 255 211
-0.530311508093444 -0.00743686565346856 0.334010904718994 -2.566285E-14 1 7.86745E-14 22 255 211
-0.530302009862033 0.0264220076456317 0.310075782069704 -1.700813E-14 1 -8.270051E-14 22 255 211
-0.603614888649954 0.00625730958597272 0.272494343069021 -0.1438173 0.9893055 -0.02431485 22 255 211
-0.588949787998626 0.0249985670455206 0.26961206494875 1.274875E-15 1 4.287657E-14 22 255 211
-0.572621732288039 0.0148201055483541 0.28835500301199 -8.554577E-15 1 -4.776245E-14 22 255 211
-0.553755389756523 0.00767481439804251 0.306748005578151 -1.981635E-14 1 -7.939354E-14 22 255 211
-0.56598280513666 -0.042665797204017 0.333698105079366 -0.1474493 0.9888819 -0.01926605 22 255 211
-0.575468396643555 -0.0185859510859558 0.309963756521265 -0.1197435 0.992796 -0.004198418 22 255 211
-0.625715153030986 -0.0724121912440133 0.312494833768622 -0.7812805 0.6240655 -0.01196295 22 255 211
-0.596030606706625 -0.0526421992988706 0.31950548240261 -0.4204187 0.9068848 -0.02842391 22 255 211
-0.614654918152559 -0.0834915884759422 0.328149917766831 -0.7360733 0.676267 0.02931011 22 255 211
-0.622786582089675 -0.0279531452756984 0.283128353251129 -0.3461241 0.9366317 0.05402861 22 255 211
-0.595354851248268 -0.0274546640340658 0.30217303668252 -0.230285 0.9730545 -0.01156918 22 255 211
0.318096186528498 0.394851200751912 0.644408368176287 0.7391839 0.6699695 0.06890553 22 255 211
0.245797446381133 0.415151331330317 0.583987829630937 0.3700978 0.9288658 0.01535572 22 255 211
0.263298332719431 0.41043660616546 0.599696639173024 0.4133619 0.910565 -0.001839166 22 255 211
0.287056555557776 0.421288500233899 0.608822791766447 0.7559007 0.6519109 0.06021812 22 255 211
0.276877828756547 0.435720326458873 0.591420502832868 0.7234443 0.6903298 0.008545234 22 255 211
0.283684780738693 0.385522916044027 0.631728674040997 0.3718562 0.9272201 0.04456298 22 255 211
0.287905910945429 0.359164336455783 0.653351794203745 0.372733 0.9264897 0.05183645 22 255 211
0.239052058078374 0.393125750215405 0.594792557586249 0.2869655 0.9570806 0.04058978 22 255 211
0.218963306738647 0.385307934138182 0.586115696050631 0.1575255 0.9875149 6.411732E-05 22 255 211
0.200579932210943 0.365254196145972 0.58729682138343 2.00602E-13 1 2.851825E-13 22 255 211
0.230905784982154 0.344659322295657 0.623303212480457 2.167162E-13 1 1.242491E-13 22 255 211
0.248392425458656 0.362460779087704 0.623080603728907 0.167096 0.985799 -0.01671283 22 255 211
0.249031851425733 0.324013274963697 0.650719237052077 0.02520157 0.9853728 0.1685388 22 255 211
0.21222872774442 0.341846393343469 0.612085579792134 3.442565E-13 1 3.587023E-13 22 255 211
0.203473367883271 0.278577337265254 0.650632584054765 -0.01990877 0.9764636 0.2147617 22 255 211
0.195549716222227 0.310560130939315 0.622414465945262 7.592338E-14 1 9.835719E-15 22 255 211
0.217357896411411 0.323005950659194 0.62903465452102 2.077922E-13 1 1.319186E-13 22 255 211
0.159385152406735 0.337147319266913 0.578042276473546 1.343332E-13 1 1.559848E-13 22 255 211
0.171278388687817 0.364512845715419 0.567101715175673 -7.172872E-14 1 -6.306933E-14 22 255 211
0.119352882555751 0.318509733863925 0.562913950019021 8.065024E-14 1 1.599306E-13 22 255 211
0.118883665366849 0.288389940741072 0.583880073328004 1.850048E-13 1 2.316338E-13 22 255 211
0.146350676625437 0.286263093725477 0.604806091195153 1.571777E-13 1 6.00696E-14 22 255 211
0.115383810289467 0.342428829779827 0.543194037182526 1.730489E-13 1 1.746108E-13 22 255 211
0.091978388495634 0.340740967075965 0.527837403879188 4.375605E-13 1 7.064508E-14 22 255 211
0.0997355801711932 0.361732943869215 0.518478997574922 9.631466E-14 1 8.490862E-14 22 255 211
0.0482806530814193 0.316881328384445 0.513809751160736 8.325114E-14 1 -6.925178E-15 22 255 211
0.0822111927329883 0.313836647497563 0.539955180339343 2.85768E-13 1 1.620943E-13 22 255 211
0.0671930140039772 0.319430705849961 0.525380127723654 2.13388E-13 1 2.235133E-13 22 255 211
0.0683490556395301 0.25429542672141 0.572255170169765 -9.577864E-15 1 1.75298E-13 22 255 211
0.0719230076364287 0.292072222312017 0.54807010752879 -8.603343E-14 1 -9.049612E-15 22 255 211
0.0493537993196232 0.336623441743835 0.500608797911597 1.70217E-13 1 -8.377159E-14 22 255 211
0.0257212817410541 0.338241190448505 0.482754163395952 8.423154E-14 1 3.301458E-15 22 255 211
0.0176518327511409 0.301377100885839 0.503115049006775 1.014519E-13 1 8.482069E-14 22 255 211
-0.0257201800766139 0.297016270785371 0.475529977158203 8.949017E-15 1 1.095E-13 22 255 211
-0.00486049627201141 0.320337027715277 0.473789735662305 1.809249E-13 1 7.712566E-14 22 255 211
0.0130610528167082 0.267963129785171 0.523496122935856 -6.209945E-15 1 -8.79723E-14 22 255 211
-0.00100347024557938 0.278048148379417 0.506419818267974 -8.493613E-14 1 -6.922196E-14 22 255 211
-0.0243429335196827 0.317492428194837 0.462025007781098 8.778467E-14 1 1.480919E-13 22 255 211
-0.0381286986542364 0.338039957337401 0.437747702577276 0 1 0 22 255 211
-0.044891180527655 0.293183532438038 0.464684188013054 -6.796719E-14 1 2.3156E-13 22 255 211
-0.0984211464156766 0.281327095142961 0.435216553349012 -2.122182E-16 1 -4.208698E-14 22 255 211
-0.0714524343119493 0.286612273209086 0.45054912730709 1.421658E-13 1 2.871854E-14 22 255 211
-0.0737917825564321 0.314385774281293 0.429256127354409 -2.344405E-16 1 -4.597361E-14 22 255 211
-0.0719411845285607 0.265781478004767 0.4649331252611 -1.083798E-15 1 5.199141E-14 22 255 211
-0.0604850120332217 0.228504233446568 0.499392854930048 -3.63455E-14 1 -1.44353E-13 22 255 211
-0.055061551371323 0.255893369386444 0.483860776987649 -2.092131E-13 1 1.81906E-13 22 255 211
-0.109003258370853 0.313197986228241 0.405197747017372 2.115615E-13 1 8.953129E-14 22 255 211
-0.150420139794472 0.279260461561502 0.399909043135669 1.37512E-13 1 -1.076029E-13 22 255 211
-0.117914690557889 0.279875468842109 0.422458990897775 0 1 0 22 255 211
-0.132429851862328 0.294381951557296 0.401937589610316 -2.776467E-15 1 4.610548E-14 22 255 211
-0.125259411026566 0.227267898916143 0.45446465868485 1.362673E-13 1 -6.072833E-14 22 255 211
-0.119133766670929 0.261461595977157 0.434617548282177 -9.516589E-14 1 -1.242637E-13 22 255 211
-0.129441472808971 0.242746178250832 0.440562698160512 8.094828E-14 1 -1.659214E-13 22 255 211
-0.172454302576314 0.295155801065746 0.373088834862147 9.274743E-14 1 7.591387E-14 22 255 211
-0.151316819346428 0.306733510858082 0.379848615486446 2.888147E-13 1 3.797219E-14 22 255 211
-0.169708635636439 0.319326671759691 0.35793892799934 -6.093683E-15 1 9.802828E-14 22 255 211
-0.185336614801985 0.269481339814884 0.382134250183808 7.893338E-14 1 4.324598E-14 22 255 211
-0.198507033974923 0.277910091241849 0.366861330184612 -4.016004E-14 1 1.316136E-13 22 255 211
-0.222129476209281 0.272121650336682 0.354250786909051 -2.525254E-15 1 1.11201E-13 22 255 211
-0.200427396170291 0.213320187424488 0.411175388039375 -1.163064E-13 1 -3.140052E-14 22 255 211
-0.188033110914373 0.239629010535972 0.401336323964627 -1.205623E-13 1 1.342668E-13 22 255 211
-0.243321151584732 0.286954363948746 0.328777697167877 2.179157E-13 1 3.526249E-14 22 255 211
-0.235499592142261 0.315249228152392 0.314300884537951 1.453876E-13 1 8.945856E-14 22 255 211
-0.244156267996122 0.263345895477545 0.344880888839718 9.907347E-14 1 9.995718E-14 22 255 211
-0.302026803404033 0.255143070086062 0.309760514281094 1.429284E-13 1 7.003839E-14 22 255 211
-0.274038065014499 0.254629326221525 0.329914812763598 1.278471E-13 1 9.151587E-14 22 255 211
-0.255769248416025 0.226496093989893 0.362726016152315 8.148685E-14 1 -1.464019E-13 22 255 211
-0.25751262645696 0.245165915891744 0.348291704047053 4.749104E-14 1 9.048734E-14 22 255 211
-0.262103181131728 0.204169326054475 0.374034658386575 4.574369E-14 1 -1.299341E-13 22 255 211
-0.334438233808342 0.244391623989009 0.29444459249704 4.68549E-14 1 4.182591E-14 22 255 211
-0.344158262024228 0.268843832808256 0.270281171961183 1.364035E-13 1 1.7405E-13 22 255 211
-0.363456710350979 0.25047727978954 0.269622222469516 -5.339373E-14 1 4.832152E-14 22 255 211
-0.349061900743393 0.208206441806991 0.309690886140828 9.37786E-14 1 2.206281E-13 22 255 211
-0.324943752972969 0.206866137638713 0.327692730145196 -5.063145E-14 1 4.315006E-14 22 255 211
-0.318485117752555 0.235176571948554 0.312241174827936 3.825825E-14 1 1.081653E-13 22 255 211
-0.370050899937124 0.294440896691971 0.233872454659526 4.117653E-14 1 4.128846E-15 22 255 211
-0.37627967567022 0.26341408141378 0.251407316581995 4.618816E-14 1 9.466902E-14 22 255 211
-0.432679928302114 0.227729778261058 0.236758928226555 -9.847858E-19 1 2.481604E-14 22 255 211
-0.391798375035822 0.236004549738064 0.259815404742429 0 1 0 22 255 211
-0.408583443744404 0.247712138039522 0.239668053756607 4.316766E-14 1 3.769734E-14 22 255 211
-0.40542033673257 0.208132387906727 0.269891817890862 -8.251248E-14 1 -9.439542E-16 22 255 211
-0.391595580439646 0.193082787310774 0.290309071449388 5.658574E-14 1 1.392361E-13 22 255 211
-0.443196574973016 0.245823052841272 0.216528658900677 -4.105555E-14 1 -5.905834E-14 22 255 211
-0.439788709781612 0.268869240703806 0.202642267768792 -6.264133E-14 1 -4.036606E-14 22 255 211
-0.417468580788926 0.263635674000729 0.222125672842016 -2.151088E-15 1 2.067984E-14 22 255 211
-0.484273965043565 0.238666208050458 0.192543211311832 5.967784E-15 1 9.578268E-14 22 255 211
-0.470990507289994 0.229601190054495 0.208345970063509 2.296702E-14 1 2.106102E-14 22 255 211
-0.496933549604762 0.214379985269007 0.200764486039776 4.280109E-14 1 5.507228E-14 22 255 211
-0.457295159328157 0.192157465134561 0.244506755281803 2.393617E-14 1 1.984531E-15 22 255 211
-0.468936521139655 0.166011674695283 0.254762935121743 -9.634201E-14 1 -8.323894E-15 22 255 211
-0.499999715145436 0.189231571014085 0.216378993849469 2.319114E-14 1 2.362748E-15 22 255 211
-0.52401934557014 0.182746066514409 0.203980494505703 2.170606E-14 1 -2.04829E-14 22 255 211
-0.491110654243285 0.176895818366284 0.23138720344006 2.304226E-14 1 3.583427E-16 22 255 211
-0.501317855521581 0.125318449561014 0.260640329437207 2.195774E-15 1 -4.61161E-14 22 255 211
-0.514333948049852 0.137484150584545 0.242834112454288 -2.193076E-14 1 -4.552886E-14 22 255 211
-0.509629973618299 0.16140107671265 0.229248504023046 -2.306544E-14 1 -3.671768E-15 22 255 211
-0.542230411063736 0.141045452113925 0.220590113824776 -5.214362E-14 1 -4.725501E-14 22 255 211
-0.566904663977992 0.155247633013628 0.193100323846576 -2.325606E-14 1 3.069867E-15 22 255 211
-0.581407462615864 0.13615431053215 0.196346314385588 -2.12103E-16 1 -2.666731E-14 22 255 211
-0.55652439528501 0.109671814146717 0.232667252808844 -2.325159E-14 1 -2.573393E-14 22 255 211
-0.553863810049305 0.0931988957426923 0.246196682980355 -5.414549E-14 1 9.124368E-16 22 255 211
-0.582680108984029 0.0919176989965027 0.226726425502177 -2.567027E-14 1 -6.638825E-14 22 255 211
-0.597897690218986 0.115039136007219 0.199616645716626 -1.703702E-14 1 -2.065953E-14 22 255 211
-0.599613459836137 0.0955496848906155 0.21218453643154 -3.245008E-14 1 -4.894305E-14 22 255 211
-0.578470003602564 0.110921311413223 0.216265836360017 -2.384653E-14 1 -1.918399E-14 22 255 211
-0.657165944978425 0.0604644497230834 0.196297791619776 -0.116 0.9926697 -0.03392469 22 255 211
-0.632481933041735 0.0749406848288546 0.203515779837758 -2.496507E-14 1 4.438254E-14 22 255 211
-0.6237102346602 0.0101851545619028 0.255507381816957 -0.1818992 0.9823743 0.04305095 22 255 211
-0.618837013148929 0.0474746549485243 0.232585611203363 -0.0390838 0.9991961 0.008920762 22 255 211
-0.639365340351762 0.0167614263094058 0.239787424074676 -0.2438304 0.9689997 0.03982896 22 255 211
-0.582249528433004 0.0471640162928697 0.258676524452464 9.063672E-16 1 -5.118196E-14 22 255 211
-0.571234500585238 0.0652926586800884 0.25364643937287 -1.409837E-14 1 -9.776538E-14 22 255 211
-0.599395708701684 0.0555883038578255 0.240595473249188 -1.211383E-14 1 -4.728644E-14 22 255 211
-0.666826458254893 0.0211763667225553 0.217247647081737 -0.4812903 0.8765361 -0.006647349 22 255 211
-0.693432671335201 0.024665926764222 0.195966721822136 -0.5237332 0.851264 0.03245242 22 255 211
-0.668324855934447 0.0387686418022017 0.203748502916293 -0.3041857 0.9526098 0.002357767 22 255 211
-0.654356315876173 -0.0120965962142613 0.249592907042883 -0.3708191 0.9279116 -0.038383 22 255 211
-0.661371654452859 -0.0387952546304904 0.263511115977688 -0.6548201 0.7553422 0.02585876 22 255 211
-0.661361193686233 0.00557202017167776 0.232146111981325 -0.4048965 0.9141688 -0.0188206 22 255 211
0.258056842043255 0.454890545237154 0.560565391541829 0.6532419 0.7553148 0.05267557 22 255 211
0.235675500835679 0.475424596756556 0.534210898589796 0.6090404 0.7910808 -0.05710525 22 255 211
0.218218121082517 0.484152202292042 0.515695317926922 0.6194216 0.7833344 0.05200152 22 255 211
0.188873615079384 0.471017434593218 0.504233302050686 0.4201969 0.9066294 0.03818035 22 255 211
0.230259323187276 0.42588988689349 0.565407411894781 0.4106984 0.9117458 0.006813738 22 255 211
0.233236719562185 0.45055882368756 0.55006917657001 0.5687825 0.8212571 -0.04498095 22 255 211
0.158107177976565 0.432609884085213 0.509636385155309 0.06679927 0.9975541 -0.02058567 22 255 211
0.185616078894038 0.44250102745328 0.522094020987794 0.2725245 0.9621423 0.003524021 22 255 211
0.197978719837262 0.397475644112706 0.562673482117766 0.06388551 0.9979571 0.0006091006 22 255 211
0.177658934346518 0.402910820635226 0.544461973828985 0.03687228 0.999314 0.003479431 22 255 211
0.15656576615862 0.45080757449224 0.495678732117497 0.06384575 0.9979588 0.001382709 22 255 211
0.152985979950879 0.4809237916215 0.471852059659018 0.2230487 0.9747449 0.01102957 22 255 211
0.0900578768226642 0.413583544127696 0.474971916859501 9.001754E-14 1 9.783596E-14 22 255 211
0.119203197254538 0.433534977959095 0.481472976420157 1.539909E-13 1 1.029704E-13 22 255 211
0.10428409101655 0.383699433704043 0.506162626516902 -3.666571E-15 1 -8.722887E-14 22 255 211
0.125543383352368 0.36671214391328 0.533207044095816 3.058468E-16 1 9.727947E-14 22 255 211
0.131794582632093 0.409352955014192 0.507475702812308 8.854253E-14 1 8.447271E-14 22 255 211
0.0770383677727453 0.446823064011026 0.442261843809696 9.939869E-14 1 -1.442418E-13 22 255 211
0.0763464787334685 0.421242306804409 0.45986093126688 9.04254E-14 1 -6.444547E-14 22 255 211
0.084462922991529 0.466456719381482 0.433628706300263 7.757292E-14 1 1.671999E-13 22 255 211
0.0565450452631984 0.416848181910792 0.448966318892495 1.020341E-13 1 -6.074792E-14 22 255 211
0.00753315201759715 0.399289403704022 0.426725607959097 5.822223E-15 1 -4.480376E-14 22 255 211
0.0251052953272899 0.413002414365762 0.429454426823962 -8.549951E-15 1 5.589928E-14 22 255 211
0.0378272367756054 0.404293020197296 0.444608669568474 1.112669E-13 1 -3.060192E-13 22 255 211
0.0555183162086784 0.369445788933655 0.481758865334206 -1.668887E-13 1 -7.160644E-14 22 255 211
0.0345433067869895 0.370091047732291 0.466471027064542 -1.965477E-15 1 -4.276994E-14 22 255 211
0.0641448210140849 0.400980182235335 0.465560542035826 -2.04664E-13 1 -8.046704E-14 22 255 211
0.0240473230935357 0.434750593575879 0.413328042485234 2.429368E-14 1 -1.25795E-13 22 255 211
0.00803419375216144 0.416798344181321 0.414699207424375 1.076788E-13 1 -6.228159E-14 22 255 211
-0.0231055968938037 0.417651719121822 0.392076623086561 0 1 0 22 255 211
-0.036664385030626 0.389786036455848 0.402193125225844 2.154215E-13 1 -1.974511E-13 22 255 211
-0.0128896664016255 0.398914892659648 0.412549313863029 -1.838979E-13 1 -2.115536E-13 22 255 211
-0.0225111820143184 0.363620393622968 0.43070285453542 -1.225082E-15 1 4.676415E-14 22 255 211
-0.00667709666853981 0.378522582646452 0.431361804744277 -9.248787E-14 1 4.638856E-14 22 255 211
-0.00974321867072512 0.341215782813103 0.455573620231117 -1.651333E-13 1 9.410643E-14 22 255 211
-0.0563238586645536 0.415707061961565 0.369962845194335 1.051148E-13 1 3.691103E-14 22 255 211
-0.0434295932671191 0.436199566536279 0.364590078747002 -1.835671E-13 1 -1.577447E-13 22 255 211
-0.0620278086358283 0.396105095900757 0.379790226616283 1.103546E-13 1 1.303126E-13 22 255 211
-0.104820273186263 0.378344510967282 0.362090014793285 8.699851E-14 1 -1.088052E-13 22 255 211
-0.08299128422824 0.401083028731808 0.361446880806522 1.7707E-13 1 2.573618E-14 22 255 211
-0.0912971546755626 0.34004245088213 0.398735950014617 -1.205222E-13 1 -3.465071E-14 22 255 211
-0.0713623707716626 0.376096709230997 0.387337760325417 -1.013912E-13 1 1.951035E-14 22 255 211
-0.0912329770871823 0.357655275782699 0.386327182499517 -6.896329E-14 1 -7.299719E-16 22 255 211
-0.109629969431543 0.419773682809478 0.329394197614241 -7.590513E-14 1 4.478306E-15 22 255 211
-0.124618962608565 0.401656018590913 0.331606502123818 9.342753E-14 1 -4.832945E-14 22 255 211
-0.102600780096455 0.405669562072816 0.344337704474894 9.117252E-15 1 -1.476601E-13 22 255 211
-0.164005660937064 0.393356577958677 0.309624491398297 -1.047387E-13 1 -4.008196E-14 22 255 211
-0.152480417325166 0.37278322522941 0.332321626537704 -4.78417E-14 1 4.361921E-14 22 255 211
-0.17971663996712 0.365219157148421 0.318411312647096 0 1 0 22 255 211
-0.137000302112552 0.351619223430629 0.358232930167055 -5.616482E-14 1 -1.074197E-13 22 255 211
-0.139731171238964 0.325186439498945 0.374992714852968 -4.434251E-14 1 4.023189E-14 22 255 211
-0.161030145311091 0.338064395783798 0.350825975637408 -9.065191E-14 1 -2.500729E-13 22 255 211
-0.190049298056586 0.393328257232846 0.291228884761604 3.561501E-13 1 8.582402E-14 22 255 211
-0.226088450266164 0.358383692048 0.290454894853817 2.106702E-13 1 9.85514E-14 22 255 211
-0.221633273210243 0.376598082471413 0.280725661777872 2.518455E-13 1 8.104598E-14 22 255 211
-0.209471264774626 0.298215199935873 0.344750568185373 8.243104E-14 1 -8.365869E-15 22 255 211
-0.202149839192201 0.345111683624518 0.316766776232613 8.285014E-14 1 7.953086E-14 22 255 211
-0.252259282518713 0.379220384176551 0.25721555559715 1.436215E-13 1 -3.946137E-14 22 255 211
-0.277783639823246 0.350780569369836 0.259277095367204 0 1 0 22 255 211
-0.322259191802749 0.340655815973984 0.234987412749531 1.927848E-13 1 6.02084E-14 22 255 211
-0.299693639035344 0.311464356339658 0.271585147192751 2.198022E-13 1 4.733201E-14 22 255 211
-0.278353189077063 0.290351360123374 0.301604266867524 7.996952E-14 1 3.647487E-14 22 255 211
-0.277004416476296 0.324260587769703 0.278580548306287 7.940728E-14 1 1.030415E-13 22 255 211
-0.323374630799797 0.374215016968838 0.210468739676055 -7.926336E-15 1 -4.059826E-14 22 255 211
-0.354953980048481 0.349227134554966 0.205807868779193 1.796147E-13 1 2.597252E-15 22 255 211
-0.345278412015738 0.337727904708008 0.220780711950185 1.381048E-13 1 4.671913E-14 22 255 211
-0.340492157483422 0.302308463970773 0.249210431717603 9.105326E-14 1 5.255041E-14 22 255 211
-0.348795512774707 0.316964953700284 0.232975369608406 8.575104E-14 1 1.554576E-13 22 255 211
-0.389197112971827 0.381826287657944 0.158543235059968 4.420093E-14 1 2.903723E-14 22 255 211
-0.38724460419067 0.352190180016371 0.180879759940781 0 1 0 22 255 211
-0.421729424515557 0.323395104045808 0.176856503124621 4.910569E-14 1 2.599208E-14 22 255 211
-0.42794496495954 0.338320401550759 0.161907673250964 2.143657E-15 1 7.990946E-14 22 255 211
-0.450875593388733 0.319358795530469 0.159101150590947 0 1 0 22 255 211
-0.425534227889752 0.290187862386135 0.197647166619701 -3.578011E-16 1 2.302868E-14 22 255 211
-0.406194286808082 0.304262715440551 0.201370146067317 -4.044565E-14 1 1.971083E-14 22 255 211
-0.456468835237573 0.362850388822444 0.124392930809453 3.239817E-15 1 5.16585E-14 22 255 211
-0.447521762167642 0.341541484255151 0.145787137768163 1.030631E-13 1 5.005782E-14 22 255 211
-0.510595544104291 0.318625306955949 0.117391423212816 0 1 0 22 255 211
-0.4828232890374 0.321890376829127 0.134720620051085 -4.259161E-14 1 2.077622E-14 22 255 211
-0.483293119801475 0.256518393563966 0.180613372198206 -4.247946E-14 1 3.734566E-14 22 255 211
-0.478706031765763 0.300109925326225 0.153033065542756 -1.015329E-13 1 -4.807555E-14 22 255 211
-0.474550657628218 0.276400828329659 0.172736222035862 4.575591E-14 1 4.265686E-14 22 255 211
-0.533972643731777 0.298973818989998 0.114757017942877 2.624913E-14 1 2.019405E-14 22 255 211
-0.517503198620991 0.287279778375438 0.134671609681119 9.125819E-14 1 2.527429E-15 22 255 211
-0.568955538320406 0.266306051760331 0.113119975688045 -3.73519E-14 1 2.627776E-14 22 255 211
-0.545296181642021 0.271859267448091 0.125922950763634 4.718944E-14 1 1.959436E-14 22 255 211
-0.512661821627152 0.265040158527948 0.153820766188914 4.998333E-14 1 -1.594285E-14 22 255 211
-0.536630637877705 0.242706304603251 0.152664673241317 -3.985883E-14 1 4.42728E-16 22 255 211
-0.515972497637781 0.244230172695938 0.166194646829698 2.139275E-14 1 -2.350542E-14 22 255 211
-0.525586193911228 0.224813145088571 0.173126648894131 -4.664961E-14 1 -4.771401E-15 22 255 211
-0.590087544494283 0.233985268306462 0.121031635975912 -6.299485E-14 1 1.386177E-15 22 255 211
-0.608850363616907 0.228023250753326 0.111980102381504 -6.640353E-14 1 -9.1971E-15 22 255 211
-0.570088278981254 0.233009653075125 0.135863116384833 2.406976E-14 1 -2.299936E-14 22 255 211
-0.618311278616067 0.197912895740522 0.126581461442857 -2.566638E-14 1 -2.170009E-14 22 255 211
-0.635176533084094 0.200963913020295 0.112498530634034 -2.706932E-14 1 -1.416751E-14 22 255 211
-0.599189453625342 0.196434923795874 0.141147717546925 -2.40179E-14 1 9.332454E-16 22 255 211
-0.59997086610225 0.137500885194061 0.18226783382365 -4.008148E-14 1 2.741984E-14 22 255 211
-0.614905612383676 0.154259365672412 0.159857338264129 -3.186786E-14 1 -5.476843E-15 22 255 211
-0.592118829444 0.161678667990146 0.170723788021658 -6.123493E-15 1 -4.238039E-14 22 255 211
-0.56054763167386 0.175150583781449 0.183521913043501 -2.247334E-14 1 -7.324748E-14 22 255 211
-0.578646064895512 0.198410449528894 0.154277179384112 5.949101E-15 1 -4.665185E-14 22 255 211
-0.530999751836613 0.20039694098146 0.186563548869718 2.260673E-14 1 -2.360063E-14 22 255 211
-0.63405621703209 0.160626918971028 0.141813275736396 2.771361E-14 1 -2.658728E-14 22 255 211
-0.677241924019048 0.158654700353885 0.112670938633747 6.110604E-16 1 2.785989E-14 22 255 211
-0.642975973267053 0.176045474943993 0.124603490131534 -1.26351E-14 1 -1.884055E-15 22 255 211
-0.65501238471799 0.156658662793719 0.129801008310474 4.639923E-16 1 -2.093324E-14 22 255 211
-0.633727040053582 0.10630869465693 0.180454823764619 -9.734502E-15 1 4.609919E-14 22 255 211
-0.636614840961666 0.139910864281782 0.154652518155484 -2.447308E-14 1 -2.267445E-14 22 255 211
-0.646460829447562 0.115788940357383 0.16474712891183 -2.45357E-14 1 -8.956756E-16 22 255 211
-0.679430789802893 0.121879672082218 0.137127048664105 -1.167739E-14 1 1.457295E-16 22 255 211
-0.714557640658138 0.111856099797591 0.119376350156806 -0.1436553 0.9896098 -0.005967054 22 255 211
-0.679368178455291 0.0586947468405996 0.181849810679687 -0.2636997 0.9645526 -0.01003498 22 255 211
-0.668222705793647 0.0917299582717495 0.166371427957368 -0.04580668 0.9988911 0.01087691 22 255 211
-0.697745461733546 0.0838892739156781 0.151039888110271 -0.1519825 0.988176 0.02023608 22 255 211
-0.737162857076743 0.0962938501168934 0.11439622061676 -0.3475783 0.937414 -0.02107923 22 255 211
-0.751735273146459 0.0731027721560635 0.120490534884721 -0.6912691 0.7207667 -0.05140436 22 255 211
-0.732616650454893 0.080999454581664 0.128425644944856 -0.4551455 0.8903449 0.01133872 22 255 211
-0.706321066633234 0.0583482909283713 0.16303622200142 -0.3159077 0.9485655 0.02063454 22 255 211
-0.728298089028942 0.0518223712311033 0.152110642506543 -0.6266323 0.7774354 0.05409377 22 255 211
-0.729452336996445 0.0289666784623002 0.167455881287088 -0.7528466 0.6568056 0.04276026 22 255 211
-0.753927208617611 0.0526610335249257 0.128430353110457 -0.7553132 0.6547512 -0.02833568 22 255 211
0.172033622623879 0.524255538915883 0.454680604606195 0.6175471 0.7863964 0.01470696 22 255 211
0.135957526388664 0.52639001277575 0.427661651378959 0.4952657 0.8687137 -0.006950777 22 255 211
0.152947554324988 0.519669742718865 0.444427363873911 0.4828658 0.8756365 -0.01006583 22 255 211
0.178871164311495 0.505514973520824 0.47276705757427 0.5022275 0.8636798 -0.04271669 22 255 211
0.178375993451378 0.488000591558151 0.484801457155333 0.2749586 0.9611222 0.02533452 22 255 211
0.132258342678341 0.570117637511581 0.394125833516648 0.6317251 0.7747821 -0.02522027 22 255 211
0.127969737930887 0.551882426808708 0.403987573162261 0.5682505 0.8228138 0.008293445 22 255 211
0.152375285585826 0.553209172559661 0.420306750490231 0.6063123 0.7951885 0.007788749 22 255 211
0.0762895958204752 0.508410645082217 0.398183385872368 0.02480235 0.9996877 -0.003067874 22 255 211
0.107774430083187 0.524802661833843 0.408855619481668 0.2941531 0.9549903 0.03830908 22 255 211
0.106037681063892 0.469518086528461 0.44671965056636 0.006466801 0.9999791 -0.0002856248 22 255 211
0.107918859638604 0.450124945899109 0.46176286594068 -6.254563E-14 1 -4.073655E-14 22 255 211
0.105551722669395 0.498398706206666 0.425954344070907 0.1193271 0.992739 -0.01517642 22 255 211
0.0657215842301192 0.557177465768213 0.356227323609193 0.2223232 0.9749603 -0.004987878 22 255 211
0.0668729476465416 0.524758385030801 0.379965212317813 0.08899126 0.9959531 -0.01256552 22 255 211
0.0268193191557225 0.528825549464946 0.348767100449244 -5.829513E-16 1 2.492429E-13 22 255 211
0.019025449469437 0.50819624298274 0.357843124847131 2.407185E-13 1 2.065876E-13 22 255 211
0.0406355958987892 0.500869436652338 0.378304640370428 1.885807E-13 1 4.679698E-15 22 255 211
0.0434653344314593 0.448102964326041 0.417617098077081 1.972958E-13 1 1.186462E-13 22 255 211
0.019729138704099 0.461976163418722 0.391023239963507 3.746019E-16 1 -3.833829E-14 22 255 211
-0.00807207471005805 0.520201055316317 0.330193597538499 8.060762E-14 1 1.423576E-13 22 255 211
-0.0275450734405161 0.492844092911786 0.335768401715065 2.035722E-13 1 1.24168E-13 22 255 211
-0.0475387895046984 0.486062056929263 0.326426333138456 -8.478637E-14 1 -9.16753E-14 22 255 211
-0.044846640688531 0.506546494263392 0.313845285274578 1.561795E-13 1 1.391777E-13 22 255 211
-0.0402519630043186 0.463792496206787 0.347325854971113 -4.923271E-15 1 -4.086619E-14 22 255 211
-0.027238855169672 0.451967178557802 0.364889274064586 -1.740686E-13 1 -7.642444E-14 22 255 211
-0.0695475317749054 0.522554941253406 0.285059436263148 -1.080468E-13 1 -1.67403E-14 22 255 211
-0.0767142648996893 0.496420783717399 0.298471430685967 1.036133E-13 1 7.00833E-14 22 255 211
-0.0686487684038769 0.544008281125323 0.270525155834952 0 1 0 22 255 211
-0.110435996604059 0.497466158126691 0.273887374190764 1.039823E-15 1 5.227269E-14 22 255 211
-0.118556082174649 0.475632983611251 0.283583992374682 -8.593252E-14 1 -7.224071E-15 22 255 211
-0.0911230026284891 0.445547686067937 0.324255626857494 6.649231E-15 1 7.700908E-14 22 255 211
-0.0860935693949067 0.466099747939689 0.313279470885604 9.432081E-14 1 8.617218E-14 22 255 211
-0.143744905073011 0.490155266646941 0.255504000080297 0 1 0 22 255 211
-0.15799961717138 0.473012772032652 0.257545970679896 -8.364824E-14 1 -4.040671E-14 22 255 211
-0.189759110318413 0.461551142125086 0.243193213939671 -1.91168E-13 1 2.868761E-14 22 255 211
-0.178079880354886 0.480422509452372 0.238107604838533 -9.23336E-15 1 1.066511E-13 22 255 211
-0.157010071901845 0.444461915202101 0.278434189323844 -2.298062E-15 1 3.896808E-14 22 255 211
-0.158856930381204 0.413634341488827 0.298926649589381 -8.714524E-14 1 -2.061901E-15 22 255 211
-0.176457729122578 0.43457787360106 0.271671691866498 8.503216E-14 1 -7.30403E-14 22 255 211
-0.208099260442889 0.483676347243949 0.214579886843984 1.889579E-13 1 4.228148E-14 22 255 211
-0.19877224229034 0.503112495380361 0.207431652480498 1.114783E-13 1 3.270228E-14 22 255 211
-0.263417930628489 0.449845998352307 0.199385349140711 -7.861557E-14 1 6.238016E-15 22 255 211
-0.224060829212225 0.463883181126649 0.217289235311505 9.720626E-14 1 -8.860991E-15 22 255 211
-0.244653852737672 0.470493840333902 0.198053326777966 -4.976811E-14 1 3.484066E-14 22 255 211
-0.225427854599435 0.401063115223054 0.260743096985173 -8.787153E-14 1 3.829094E-14 22 255 211
-0.221358664000754 0.44626214688682 0.231659907458926 1.04758E-13 1 8.476224E-14 22 255 211
-0.222123399006516 0.428506409181531 0.243674360686921 4.354309E-14 1 -4.264718E-14 22 255 211
-0.253320534627118 0.417333874262805 0.229514829740071 1.398549E-13 1 -7.938108E-15 22 255 211
-0.267515596789639 0.49492567002376 0.164611720078575 9.024329E-14 1 6.982853E-16 22 255 211
-0.348198962058139 0.433994643870492 0.150644707145899 4.402287E-14 1 3.431014E-14 22 255 211
-0.328717233169464 0.44368797579862 0.157566149013647 2.239106E-15 1 -2.244057E-14 22 255 211
-0.308390392101082 0.453675676154335 0.164877025523215 1.442878E-13 1 2.934283E-14 22 255 211
-0.317293096938358 0.404591578042287 0.19328956118533 4.825154E-14 1 4.266111E-14 22 255 211
-0.288695840852649 0.433952574126053 0.192749515453641 -4.986307E-14 1 2.772486E-14 22 255 211
-0.300506695246111 0.386513679324943 0.217942344426277 5.169387E-14 1 6.329774E-14 22 255 211
-0.294366113045572 0.415142977018666 0.202040421200872 -3.81673E-14 1 4.332224E-14 22 255 211
-0.341971422297618 0.462492262214998 0.134897383561606 -5.008828E-14 1 2.952149E-14 22 255 211
-0.337875308381356 0.488937799898656 0.119093954460068 9.582371E-14 1 8.213003E-14 22 255 211
-0.398390682845594 0.42858305830798 0.118980369865891 1.054708E-13 1 2.791594E-14 22 255 211
-0.370191830920177 0.447130821950715 0.125804719836405 9.445453E-14 1 -3.839361E-14 22 255 211
-0.362243768138643 0.38573277166336 0.174839826636346 8.176562E-14 1 -1.29576E-15 22 255 211
-0.371271447415324 0.40663927822943 0.153673160837638 6.387542E-16 1 -1.943093E-14 22 255 211
-0.405349934868774 0.476706111283004 0.0800312984782748 1.711914E-13 1 7.925575E-14 22 255 211
-0.384704555574713 0.459171280286783 0.107028784081662 4.535581E-14 1 -1.365289E-14 22 255 211
-0.403524645782655 0.459153875857138 0.0937332774633077 0 1 0 22 255 211
-0.444797873121592 0.445626499780821 0.074113997885716 4.329944E-14 1 3.875288E-15 22 255 211
-0.429869367577475 0.426648833382904 0.0980892819900056 -4.526886E-14 1 5.885229E-19 22 255 211
-0.458625709882531 0.422660644313106 0.0805755528798871 5.523868E-18 1 1.054933E-14 22 255 211
-0.418321190064035 0.410513125807128 0.117664744866179 1.436417E-13 1 9.916196E-15 22 255 211
-0.422881366635401 0.385949679796114 0.131809192332856 1.474853E-13 1 4.69844E-14 22 255 211
-0.427080074875344 0.363030446897891 0.145046602266096 4.652638E-14 1 4.563073E-14 22 255 211
-0.434652327949512 0.39697062867405 0.115692878079865 8.844837E-14 1 6.31574E-15 22 255 211
-0.499130607403033 0.420945520801232 0.0531470406376921 0.003711603 0.992898 -0.1189108 22 255 211
-0.53452802669435 0.414352825534838 0.0327790249494626 0.009794761 0.9592224 -0.2824827 22 255 211
-0.494310405612669 0.36894613910002 0.0933245534287811 6.951744E-16 1 1.121815E-14 22 255 211
-0.505283013662425 0.386443212209915 0.0731934488225729 8.242703E-14 1 1.511496E-14 22 255 211
-0.553573395502633 0.375316394794215 0.0469148404049402 0.03224165 0.9800448 -0.1961443 22 255 211
-0.547819937531537 0.347722910461956 0.0704946894394796 -8.943493E-14 1 -4.082409E-15 22 255 211
-0.533584185769441 0.382172809848373 0.0562011285784163 0.00362077 0.9996881 -0.02470976 22 255 211
-0.607818026371119 0.340099672850917 0.0334600769721402 -0.01259418 0.9459085 -0.3241888 22 255 211
-0.589372146445613 0.356701683733846 0.0347638892757658 0.006028136 0.9707119 -0.2401709 22 255 211
-0.582356999649261 0.330393759932366 0.0583268584654511 0.002281623 0.9996215 -0.02741555 22 255 211
-0.592533301595147 0.289190258770396 0.0802664014323698 4.203663E-15 1 -2.47087E-14 22 255 211
-0.576811922752472 0.313592676389903 0.0741279800455285 0 1 0 22 255 211
-0.539586205231018 0.32986253206176 0.0889460120649868 4.837749E-14 1 1.372624E-14 22 255 211
-0.508372999315442 0.340701524180155 0.103352756802318 7.706343E-14 1 8.355875E-16 22 255 211
-0.627483867588015 0.307406864409765 0.042671533834706 0.02978199 0.9814695 -0.1892897 22 255 211
-0.643619296190337 0.290919503926268 0.0429203872544013 -0.02762082 0.9844406 -0.173533 22 255 211
-0.624464152329673 0.289271350047349 0.0576305401571029 -0.003976298 0.9993619 -0.03549549 22 255 211
-0.621043425851195 0.251531432799079 0.0867355104542897 -1.615692E-15 1 -2.137356E-14 22 255 211
-0.610327414046324 0.277314305030793 0.0760816312752777 -6.283873E-14 1 -2.711292E-15 22 255 211
-0.684306884920221 0.251824910523246 0.0417939694563777 0.01223663 0.9828354 -0.1840785 22 255 211
-0.657648246685702 0.259054668443196 0.0555322624776712 -0.01690411 0.9976149 -0.06692376 22 255 211
-0.668418128739939 0.273784266863844 0.0375014069171465 -0.015124 0.9885011 -0.1504553 22 255 211
-0.646491333816526 0.218599895941539 0.0920272351918545 2.332683E-14 1 -2.437817E-14 22 255 211
-0.655358721353503 0.191547288307408 0.104886127639922 1.392203E-14 1 -4.33954E-14 22 255 211
-0.641079311523262 0.250368517319399 0.0733903052501213 -2.488932E-14 1 -1.63575E-15 22 255 211
-0.655293755081668 0.234127647174338 0.0748232052311213 -7.707339E-15 1 -3.866005E-14 22 255 211
-0.686600227546235 0.22103370442029 0.0619450019702525 -2.142713E-14 1 -1.191185E-14 22 255 211
-0.72979517146431 0.206308999299078 0.0418135030549901 0.01018949 0.9893478 -0.1452145 22 255 211
-0.7058095474788 0.225012965901295 0.0455481988066204 -0.02197403 0.9825432 -0.184732 22 255 211
-0.689290368230296 0.171226545303154 0.0952617652135709 4.492759E-16 1 -1.178113E-14 22 255 211
-0.684071067209417 0.203826091004355 0.0759010085295685 3.770507E-14 1 7.117159E-15 22 255 211
-0.69623014995743 0.152316646874501 0.103725915904809 1.170333E-14 1 -1.212345E-14 22 255 211
-0.709800000131201 0.182133962925297 0.0730465564509498 5.255706E-16 1 -1.311975E-14 22 255 211
-0.728844804631289 0.135362188020291 0.0926524852460264 -0.1114309 0.9937691 -0.002462713 22 255 211
-0.748509342705477 0.142474785178818 0.0737181913422247 -0.1410534 0.9899588 -0.009250809 22 255 211
-0.728918041639989 0.156143396393822 0.0779061654983665 -0.01482591 0.9998894 -0.001179099 22 255 211
-0.745964053760217 0.123604261643973 0.0888614575715263 -0.2019404 0.9793974 -0.0009505944 22 255 211
-0.799453310997351 0.133282851090259 0.0441950448287279 -0.5279712 0.8492498 -0.004596449 22 255 211
-0.767532758156459 0.136689368698591 0.0643575125006633 -0.3191416 0.9476919 0.005354467 22 255 211
-0.777853095936162 0.114590160828242 0.0726864314164743 -0.5578473 0.8293129 -0.03235077 22 255 211
-0.764993062416349 0.10095738303188 0.0914196779508375 -0.5032336 0.8617001 -0.06502993 22 255 211
-0.76981089981368 0.0738367066123368 0.107190166663156 -0.7368491 0.6724258 -0.06997847 22 255 211
0.0879143475416266 0.619412746514823 0.327912987995051 0.6935698 0.7126541 -0.1052861 22 255 211
0.0632631452878725 0.606465552239222 0.319637004586638 0.5328943 0.8457674 -0.02647867 22 255 211
0.0854393670361693 0.589041145430214 0.347638877578758 0.4465591 0.894148 0.03292994 22 255 211
0.0855900514666697 0.57156753548464 0.360101135645708 0.337202 0.941408 -0.006759505 22 255 211
0.0848189013481934 0.552382748580745 0.373121543082983 0.3510671 0.9353235 -0.04383818 22 255 211
0.112425819559492 0.600521567720918 0.357393043428758 0.7725201 0.6349234 -0.009216753 22 255 211
0.0443996069180795 0.614962080507112 0.300290515933417 0.5036456 0.8617211 -0.06146445 22 255 211
0.0562651907930498 0.650780436069999 0.283353348644677 0.5824236 0.8122777 0.03142743 22 255 211
0.0284340893895037 0.599163807627036 0.300172256108345 0.2735549 0.9612082 -0.03530758 22 255 211
0.0061485849629842 0.592539721369848 0.289097961117812 0.1339426 0.9909464 -0.009206208 22 255 211
0.0167317611487164 0.610253717671098 0.284055709858708 0.285097 0.9529722 -0.1027794 22 255 211
0.00464191268181355 0.552082414342529 0.316640219078334 7.927583E-14 1 6.810753E-14 22 255 211
0.0288743354615214 0.5688039654967 0.321951207337373 0.07410791 0.9971675 -0.01284983 22 255 211
0.028323243276577 0.549525044320831 0.335193782213758 8.304817E-14 1 8.667283E-14 22 255 211
-0.00322515753601084 0.623926398596777 0.260275991925602 0.2466184 0.9684008 -0.0371391 22 255 211
-0.0233496549351125 0.597155332775153 0.264975825528787 -1.870749E-13 1 -5.26514E-14 22 255 211
-0.021928998775666 0.624503998751258 0.246641953964757 0.1299732 0.991337 -0.01891878 22 255 211
-0.0416268054798875 0.597105857837534 0.252086912501699 -1.021637E-13 1 -4.234007E-14 22 255 211
-0.059850055910972 0.586298160065822 0.24684332493001 -1.003997E-13 1 2.778168E-14 22 255 211
-0.0786095156449178 0.580699420686565 0.23753729032191 9.981221E-14 1 3.898619E-14 22 255 211
-0.0404379456722805 0.541192789020107 0.292464073451291 0 1 0 22 255 211
-0.0430197526795445 0.565994187192654 0.273101223378023 -2.712855E-13 1 -9.328612E-14 22 255 211
-0.0895253700225881 0.611329107627396 0.208160156327532 -1.084452E-15 1 2.415811E-14 22 255 211
-0.0759056382255708 0.598985543338663 0.22651897905172 -8.916065E-14 1 6.471748E-14 22 255 211
-0.142184906818597 0.569216587272014 0.200702289481079 8.279254E-14 1 -9.03978E-15 22 255 211
-0.120595174898604 0.587569668020439 0.20299094747283 2.203477E-13 1 -2.72494E-14 22 255 211
-0.10482607781103 0.579474460121538 0.21986555935707 9.245567E-14 1 3.069754E-14 22 255 211
-0.106177152337699 0.553863593176419 0.237019823086334 -1.66275E-13 1 5.376611E-15 22 255 211
-0.132174325821974 0.53640477876557 0.23098229148531 -8.116327E-14 1 -9.757839E-14 22 255 211
-0.108991819655613 0.518349325793928 0.260141932034084 -1.834582E-13 1 -2.680991E-15 22 255 211
-0.140368219545649 0.588776423111469 0.188155988810101 1.919248E-13 1 -7.389361E-14 22 255 211
-0.150712758987407 0.601185384050807 0.172066834394898 -2.684974E-13 1 -1.114705E-15 22 255 211
-0.208571792609537 0.564704205724414 0.156950407948058 1.680597E-13 1 1.308864E-14 22 255 211
-0.18191073608296 0.567241751510835 0.174008305978448 -9.094502E-14 1 6.108333E-14 22 255 211
-0.177356597525799 0.504783282890394 0.221393374938721 -1.854798E-13 1 9.49929E-15 22 255 211
-0.198446310795739 0.522061501415304 0.194263150186479 -1.00372E-13 1 -8.969045E-14 22 255 211
-0.167370591545481 0.55625324479068 0.192059788397268 -1.867407E-13 1 -3.519646E-14 22 255 211
-0.181923547288573 0.536652518523281 0.195629101164879 -1.522908E-13 1 -5.30348E-14 22 255 211
-0.230152057129142 0.556417712044124 0.147550292440038 -5.701051E-15 1 2.834113E-14 22 255 211
-0.222216639670205 0.584137712350227 0.13356047974586 -5.561123E-15 1 3.851206E-14 22 255 211
-0.254252383400784 0.567861664827519 0.122416691687834 1.808831E-13 1 2.508056E-14 22 255 211
-0.265557731236013 0.515770726792802 0.151256459092588 -4.045428E-14 1 1.829746E-16 22 255 211
-0.246948344685377 0.496824629575298 0.177812196335781 -8.014086E-14 1 -6.072763E-14 22 255 211
-0.235351217274655 0.530680419768763 0.162072944941959 7.682873E-16 1 -1.998209E-14 22 255 211
-0.278019312055081 0.568731564915786 0.104995823017036 -4.487602E-16 1 8.011629E-15 22 255 211
-0.286176040474085 0.602321129676926 0.0754767360199543 2.942228E-13 1 4.35878E-14 22 255 211
-0.294433868577913 0.55119520179277 0.105789060071205 1.353538E-13 1 6.047239E-14 22 255 211
-0.318580296543309 0.550270936517061 0.0893685113595102 2.28451E-13 1 5.498279E-14 22 255 211
-0.311662390607262 0.525690102189492 0.111641484198748 -1.458221E-13 1 -5.049785E-15 22 255 211
-0.309364562906344 0.477520025083033 0.14732768192032 -9.153608E-14 1 1.257977E-15 22 255 211
-0.306921720524144 0.502353351631199 0.131495218732517 1.644401E-13 1 9.12527E-15 22 255 211
-0.350615922227919 0.578258151889772 0.0469259534217965 0.023898 0.9874002 -0.1564283 22 255 211
-0.359751497948843 0.545991915553233 0.0632818003964229 -4.250915E-14 1 5.246316E-15 22 255 211
-0.330054663113058 0.564479629960545 0.0712078454625319 4.070883E-14 1 2.668002E-14 22 255 211
-0.405782109292513 0.529794223048573 0.0421867411827705 -0.002446427 0.984835 -0.1734767 22 255 211
-0.387189091205384 0.545841493400839 0.0439868566692827 -0.0225077 0.97982 -0.1986105 22 255 211
-0.381579229095574 0.530771609113716 0.058609645579772 7.404189E-16 1 2.246301E-14 22 255 211
-0.373728565360214 0.479964310119437 0.100087088796488 -8.654502E-16 1 -1.979545E-14 22 255 211
-0.388334115744417 0.502449527867203 0.0738599551309544 -4.523143E-14 1 -1.064833E-14 22 255 211
-0.421840599529216 0.533099126871563 0.0284947539363748 0.05922281 0.938836 -0.3392339 22 255 211
-0.42187973194342 0.550967629676351 0.0158321436380098 0.05889992 0.9234576 -0.3791528 22 255 211
-0.460868756470784 0.527614450699265 0.00477593121982287 0.1063399 0.8258748 -0.5537352 22 255 211
-0.444129425446262 0.526017970691511 0.0177413075393006 0.04081196 0.9376567 -0.3451584 22 255 211
-0.480558216747951 0.523137128920447 -0.00598067506870838 0.02904655 0.6462546 -0.7625689 22 255 211
-0.435125408251875 0.507711829773052 0.0370525055361707 -0.01690671 0.9814045 -0.1912051 22 255 211
-0.470073848777082 0.477695296778662 0.0335651202769453 0.009348901 0.9799781 -0.1988854 22 255 211
-0.43882700253891 0.484028223112233 0.0511819219874266 0.02983967 0.9945929 -0.09947149 22 255 211
-0.521419582426733 0.480939966829157 -0.00503612436713887 -0.02807591 0.8306895 -0.5560276 22 255 211
-0.504707826503703 0.475947025562474 0.010311414199307 -0.03340956 0.9133115 -0.405889 22 255 211
-0.509330576473852 0.449770707214614 0.0255520885579542 0.003214348 0.929821 -0.3679981 22 255 211
-0.560108616856365 0.41044968232018 0.0174507552141744 -0.009412796 0.8931589 -0.4496428 22 255 211
-0.559090042111929 0.433293535933206 0.00201795252490698 -0.09261757 0.7072842 -0.7008359 22 255 211
-0.539008745109871 0.464714511608717 -0.00600041116156809 0.02366616 0.5529341 -0.8328888 22 255 211
-0.603118765886924 0.375622212618071 0.0116647271727525 0.0005865121 0.820812 -0.5711982 22 255 211
-0.606727574283352 0.394943642633474 -0.00454939990247756 -0.00713173 0.6526378 -0.7576364 22 255 211
-0.585419557818298 0.402560647994259 0.00513160689065182 -0.008791381 0.7959228 -0.6053343 22 255 211
-0.628680104068567 0.328313877445985 0.0270421762151389 -0.02479737 0.9574344 -0.2875839 22 255 211
-0.649340964479117 0.349356053575895 -0.00244632371869149 0.02233376 0.6871327 -0.7261886 22 255 211
-0.629182749348797 0.357518213038584 0.00603616859138204 0.001678978 0.8451594 -0.5345116 22 255 211
-0.693466317108978 0.309082381794654 -0.00516987336571702 0.05701598 0.7663796 -0.6398527 22 255 211
-0.669974530643218 0.333688708136336 -0.00595797206988382 -0.02179508 0.7160549 -0.6977036 22 255 211
-0.666645485663696 0.294216745706494 0.0243069105108928 0.002062419 0.9553272 -0.2955431 22 255 211
-0.705061878607413 0.260153197430358 0.0212289845289951 -0.02936295 0.9489977 -0.3139125 22 255 211
-0.712380672482769 0.290168716439183 -0.00517036128235034 -0.01511035 0.7016897 -0.7123224 22 255 211
-0.744154649387253 0.242557856053213 0.00602800642026989 9.296012E-05 0.8004209 -0.5994384 22 255 211
-0.748258386545514 0.213106918647323 0.0239511835994618 -0.006236386 0.9524394 -0.3046643 22 255 211
-0.795003435960106 0.207345223145278 -0.00502842386786891 -0.02548865 0.7198305 -0.6936818 22 255 211
-0.786766160475169 0.172699421884238 0.0252944904973549 -0.1387486 0.9668256 -0.2144693 22 255 211
-0.802753118590996 0.180660778652954 0.00836047464450394 -0.1164565 0.879807 -0.4608444 22 255 211
-0.0339633914154407 0.730541416452606 0.163152576205577 0.6669258 0.7442883 -0.03528332 22 255 211
